# .PCD v0.7 - Point Cloud Data file format
VERSION 0.7
FIELDS x y z normal_x normal_y normal_z curvature
SIZE 4 4 4 4 4 4 4
TYPE F F F F F F F
COUNT 1 1 1 1 1 1 1
WIDTH 240
HEIGHT 1
VIEWPOINT 0 0 0 1 0 0 0
POINTS 240
DATA ascii
0.90818 -0.15873 -1.6191 0.028367549 0.31524348 -0.0021695495 0.31652468
0.91413999 -0.15904 -1.6222 0.10384879 0.56830013 -0.2301444 0.62186497
0.90056002 -0.15819 -1.6303 -0.54868424 -0.30882221 0.77518272 0.99866599
0.90262002 -0.15794 -1.6277 -0.52895987 -0.23683338 0.8055647 0.99238253
0.91302001 -0.15727 -1.6208 0.018860564 0.35618886 -0.051215947 0.36034608
0.89534003 -0.15686999 -1.6339 -0.56876969 -0.2568669 0.77887905 0.99806422
0.89850998 -0.15679 -1.633 -0.53516698 -0.23242751 0.80288839 0.99249989
0.90000999 -0.15646 -1.6296 -0.54169643 -0.20338127 0.8005687 0.98777992
0.90316999 -0.15638 -1.6287 -0.52748454 -0.22293651 0.80810583 0.99044216
0.89107001 -0.15508001 -1.6332999 -0.60123354 -0.27878922 0.74181312 0.99473208
0.89313 -0.15484001 -1.6308 -0.56965327 -0.23264392 0.77175808 0.98703527
0.89629 -0.15475 -1.6299 -0.53779435 -0.21009257 0.79820168 0.98513329
0.90000999 -0.15475 -1.6298 -0.53166395 -0.17744216 0.81528151 0.98936152
0.90372998 -0.15474001 -1.6296999 -0.53751123 -0.19647998 0.81008852 0.99184984
0.89051998 -0.15324 -1.6325999 -0.60092306 -0.25287539 0.74390996 0.9891696
0.89313 -0.15308 -1.6309 -0.56372702 -0.24860995 0.77632082 0.99109489
0.89740002 -0.15315001 -1.6317 -0.57020539 -0.23905915 0.77779412 0.99360317
0.90056002 -0.15306 -1.6308 -0.52764404 -0.1642286 0.81956273 0.98846465
0.90411001 -0.1525 -1.6248 0.5351249 0.25264138 -0.80180645 0.99653399
0.8901 -0.1521 -1.6378 -0.63626182 -0.18714654 0.7350179 0.9900021
0.89217001 -0.15187 -1.6353 -0.60311544 -0.19684407 0.7512033 0.98326105
0.89367998 -0.15154999 -1.6319 -0.5621742 -0.26289546 0.7770744 0.99448407
0.89573997 -0.15132 -1.6293 -0.54373729 -0.27220184 0.78998876 0.99690837
0.89835 -0.15116 -1.6276 -0.54064411 -0.29367203 0.78777885 0.99956733
0.90411001 -0.15091 -1.625 0.51136875 0.30916539 -0.80002141 0.99855673
0.88789999 -0.15026 -1.6346 -0.67551696 -0.1793925 0.69977379 0.98903394
0.89051998 -0.15009999 -1.6329 -0.6323747 -0.19282371 0.73863548 0.9912926
0.89367998 -0.15002 -1.632 -0.57791901 -0.20873158 0.77802992 0.99140799
0.89629 -0.14985999 -1.6303 -0.55254859 -0.27627367 0.78294927 0.99731976
0.89889997 -0.1497 -1.6286 -0.52911532 -0.30422455 0.79151005 0.99950176
0.90205997 -0.14962 -1.6277 0.52231443 0.30620113 -0.79537874 0.99959934
0.90634 -0.14969 -1.6284 0.53250849 0.24751186 -0.80317557 0.99494642
0.88112998 -0.14922 -1.6416 -0.73293298 0.057476602 0.61410153 0.95792222
0.88528001 -0.14875001 -1.6365 -0.71408248 -0.080720693 0.66775441 0.98098195
0.88789999 -0.1486 -1.6348 -0.6957128 -0.13228481 0.69029379 0.98894948
0.89107001 -0.14851999 -1.6339 -0.63963401 -0.18625727 0.73780859 0.99407494
0.89794999 -0.14843 -1.633 -0.53204805 -0.20069416 0.81107235 0.99055117
0.90000999 -0.14820001 -1.6303999 -0.52895933 -0.26433319 0.80415016 0.99816203
0.90465999 -0.14781 -1.6260999 0.50107169 0.37183401 -0.77622181 0.99591851
0.90726 -0.14765 -1.6244 0.43514991 0.35020387 -0.82721591 0.99814045
0.91877002 -0.14715999 -1.619 0.0049046576 0.2332391 0.015316397 0.23379292
0.88692999 -0.14723 -1.6392 -0.72158784 -0.09514679 0.67251593 0.990969
0.89217001 -0.14692999 -1.6357 -0.66831458 -0.14961974 0.72077513 0.99425709
0.89477998 -0.14677 -1.6339999 -0.63443393 -0.16371751 0.74556458 0.99256051
0.89740002 -0.14662001 -1.6323 -0.56523287 -0.2751908 0.77498382 0.99790686
0.90447003 -0.14555 -1.6204 -0.33788973 -0.44435751 0.82516623 0.99625421
0.91021001 -0.14531 -1.6177 0.060231432 0.18984666 0.068022758 0.21046776
0.91336 -0.14522 -1.6168 0.053823791 0.22520579 0.057671696 0.23862246
0.92022002 -0.14512999 -1.6157 -0.048342168 0.22508237 0.0039332211 0.23024879
0.88275999 -0.14601 -1.6444 -0.758156 0.05825866 0.60641551 0.97259158
0.88638002 -0.14549001 -1.6385 -0.73664224 -0.084668584 0.6600126 0.99268687
0.89390999 -0.14399 -1.6216 -0.4648875 -0.35685137 0.79668331 0.98902351
0.90131998 -0.14398 -1.6214 -0.39572996 -0.42374453 0.81138033 0.99724603
0.90390998 -0.14382 -1.6197 -0.35225555 -0.36198494 0.85669196 0.99450403
0.91505003 -0.14380001 -1.6194 0.051495612 0.24342158 0.047469556 0.2532967
0.92022002 -0.14348 -1.6159 0.45601445 0.21351603 -0.83329624 0.97361225
0.88692999 -0.14392 -1.6395 -0.73227572 -0.09959577 0.66500616 0.99417317
0.89279997 -0.14222001 -1.6201 -0.44334063 -0.012865558 0.7828182 0.89973372
0.89649999 -0.14222001 -1.62 -0.43992168 -0.126458 0.83145702 0.94912773
0.90020001 -0.14221001 -1.6199 -0.3510167 -0.36433947 0.8529284 0.99168682
0.90390998 -0.14219999 -1.6198 -0.31157354 -0.32959992 0.87891769 0.98904526
0.91302001 -0.1424 -1.6221 0.093738988 0.17653723 0.061479449 0.20912224
0.91617 -0.14232001 -1.6212 0.032158695 0.21518375 0.041250706 0.22144942
0.89241999 -0.14108001 -1.6253 -0.54634315 -0.04794246 0.7594496 0.93677801
0.89446002 -0.14086001 -1.6227 -0.50506353 -0.20010582 0.80397636 0.97031415
0.89705002 -0.14071 -1.6210001 -0.48425329 -0.23808098 0.82046831 0.98201424
0.90075999 -0.1407 -1.6209 -0.38760322 -0.19395941 0.87232637 0.9740687
0.90447003 -0.1407 -1.6208 -0.34162754 -0.29948682 0.87841034 0.98894209
0.91650999 -0.14030001 -1.6163 0.30754361 0.42957312 -0.83317757 0.98656017
0.88555998 -0.13959 -1.6263 -0.49256548 0.19136418 0.65115982 0.8386001
0.88761002 -0.13937999 -1.6238 -0.44909912 0.12873101 0.70636892 0.84688771
0.89353001 -0.13966 -1.627 -0.60372734 -0.11839248 0.74938214 0.9695757
0.89502001 -0.13936999 -1.6237 -0.51979995 -0.079385005 0.78786838 0.94722259
0.89872003 -0.13936 -1.6236 -0.50295448 -0.18060854 0.81328547 0.97314739
0.90131998 -0.13921 -1.6219 -0.40441519 -0.10223403 0.85403013 0.95045829
0.90447003 -0.13913 -1.6209 -0.34880769 -0.29328102 0.87732059 0.98862123
0.91820002 -0.13896 -1.6188999 0.39306271 0.42368013 -0.77426672 0.96617395
0.88186002 -0.13804001 -1.6265 -0.5027079 0.32228938 0.47131926 0.76074141
0.88391 -0.13783 -1.624 -0.37064603 0.23093197 0.61776024 0.75652874
0.88761002 -0.13782001 -1.6239001 -0.53492272 0.093014732 0.71173108 0.8951844
0.89297003 -0.13802999 -1.6263 -0.54482776 -0.042692445 0.76854765 0.94304055
0.89613003 -0.13795 -1.6255 -0.55306357 -0.075636156 0.7721976 0.95283228
0.89816999 -0.13774 -1.6229 -0.55708677 -0.22613889 0.78082013 0.98547679
0.90243 -0.13779999 -1.6236 -0.44116956 -0.17152521 0.84730679 0.97055668
0.90390998 -0.13751 -1.6203001 -0.39967793 -0.2339374 0.86437696 0.98062062
0.90930003 -0.13771001 -1.6226 0.093410239 0.24991998 0.070986897 0.27608806
0.91246003 -0.13764 -1.6217 0.066272296 0.18456233 0.061008722 0.20537122
0.91933 -0.13755 -1.6207 0.37266681 0.45217755 -0.76709771 0.96528959
0.88611001 -0.13655999 -1.6274 -0.66615301 0.056833565 0.66063046 0.93990558
0.89037001 -0.13663 -1.6282001 -0.60207891 -0.072003558 0.74422145 0.95997345
0.89353001 -0.13654999 -1.6273 -0.6026988 -0.085599273 0.75046587 0.96631885
0.89779001 -0.13661 -1.6281 -0.57747877 -0.028477117 0.74380398 0.94209182
0.89928001 -0.13632999 -1.6247 -0.50532401 -0.014884204 0.77393222 0.92441601
0.90243 -0.13625 -1.6238 -0.44367754 -0.091263115 0.83080858 0.94626719
0.90447003 -0.13604 -1.6212 -0.41278708 -0.28904647 0.85148835 0.98943084
0.90706003 -0.13589001 -1.6195 0.32042819 0.49170244 -0.8068285 0.99770623
0.91223001 -0.1356 -1.6160001 0.25013834 0.52365273 -0.81228256 0.99829072
0.91425002 -0.13538 -1.6134 0.26005566 0.4909752 -0.82278168 0.99280173
0.91681999 -0.13523 -1.6116 0.24940322 0.46672288 -0.83343363 0.98724049
0.91939998 -0.13508999 -1.6099 -0.21766666 0.36887622 0.005374074 0.42834252
0.92197001 -0.13494 -1.6081001 -0.10171723 0.64412034 -0.12759057 0.66446728
0.92453003 -0.13479 -1.6063 -0.11671951 0.64828235 -0.139175 0.67324817
0.88625002 -0.13542999 -1.6334 -0.78461236 0.061517581 0.53559846 0.95198041
0.88831002 -0.13522001 -1.6309 -0.69451904 0.11766519 0.60285258 0.92716396
0.89037001 -0.13500001 -1.6283 -0.56917334 0.068744525 0.71877533 0.91941398
0.89353001 -0.13493 -1.6274 -0.57272637 -0.021530032 0.75101936 0.944727
0.89613003 -0.13479 -1.6257 -0.55361867 -0.0017270148 0.75089902 0.93292332
0.89928001 -0.13471 -1.6248 -0.58676875 -0.19846167 0.7629627 0.98274958
0.90144998 -0.1336 -1.6113 -0.41382259 -0.22505443 0.83420789 0.95801955
0.90403003 -0.13345 -1.6095999 -0.24107559 -0.14643162 0.87706375 0.92130369
0.90715998 -0.13338 -1.6087 0.15735514 0.26874188 0.091343939 0.32454053
0.91626 -0.13356 -1.6109 -0.10023962 0.23866913 0.047618806 0.26320806
0.91882998 -0.13342001 -1.6092 -0.1238002 0.48204166 -0.0088562965 0.49776408
0.92197001 -0.13334 -1.6082 -0.13356194 0.56258678 -0.050359786 0.58041257
0.92567003 -0.13333 -1.6081001 -0.1368967 0.58551013 -0.086886525 0.60754597
0.88211 -0.13415 -1.6386 -0.014630497 -0.21831888 -0.017116278 0.219477
0.88200003 -0.13366 -1.6328 0.02236712 -0.28143585 0.098873883 0.29913622
0.88516003 -0.13359 -1.6319 -0.77087349 0.12938529 0.50529224 0.93075597
0.88775998 -0.13345 -1.6302 -0.72569013 0.1084003 0.57257628 0.9307096
0.89091998 -0.13338 -1.6293 -0.60929686 0.12058884 0.66089272 0.90695286
0.89407998 -0.13331001 -1.6284 -0.5302301 0.084440932 0.72035062 0.89843154
0.89630002 -0.13221 -1.6149 -0.60073578 -0.20955753 0.74130994 0.97690237
0.89888 -0.13206001 -1.6131999 -0.46240455 -0.095830709 0.80090392 0.92975724
0.90033001 -0.13179 -1.6098 -0.42037189 -0.1833082 0.82701111 0.94565415
0.90403003 -0.13178 -1.6097 -0.25878868 -0.17200644 0.86857605 0.9224869
0.90829003 -0.13184001 -1.6105 0.13533948 0.13274963 0.077847987 0.20493792
0.91368002 -0.13203 -1.6128 0.013115197 0.27722716 0.070887744 0.28644717
0.91626 -0.13189 -1.6111 -0.035753358 0.40988514 0.042132437 0.41359311
0.91882998 -0.13174 -1.6093 -0.065327212 0.49945515 0.010817617 0.50382549
0.92366999 -0.13187 -1.6108 -0.061019585 0.55130881 -0.026633769 0.55531442
0.88321 -0.13258 -1.6404999 -0.018720627 -0.20341331 -0.019864097 0.20523649
0.88472998 -0.13231 -1.6371 -0.012880832 -0.2104741 -0.014005363 0.21133249
0.88735002 -0.13217001 -1.6354001 -0.78615248 0.021590397 0.56759763 0.96988088
0.89203 -0.13181999 -1.6311001 -0.74379969 -0.065437101 0.62968206 0.97673923
0.89630002 -0.13053 -1.6151 -0.5115788 -0.0078447014 0.75203061 0.90957373
0.89832002 -0.13032 -1.6125 -0.4847908 -0.057844415 0.7662667 0.90858829
0.90312999 -0.13045 -1.6141 -0.34427315 -0.3907201 0.84107983 0.98924291
0.90403003 -0.13011 -1.6099 -0.28779534 -0.28004318 0.86984062 0.95805693
0.90885001 -0.13022999 -1.6114 0.14836659 0.18504497 0.085588038 0.25214994
0.91368002 -0.13036001 -1.613 0.10118607 0.30725259 0.075703889 0.33222559
0.91681999 -0.13028 -1.612 0.016017359 0.44036898 0.036931008 0.44220504
0.92110002 -0.13034 -1.6127 -0.031650417 0.49759269 0.0029323995 0.49860689
0.92594999 -0.13045999 -1.6142 0.0012806375 0.52129221 -0.059247464 0.52464986
0.87849998 -0.13121 -1.6447999 -0.8486864 0.070152476 0.4640612 0.96981585
0.88211 -0.13074 -1.6389 -0.027054161 -0.23056099 -0.018777117 0.23290099
0.88638002 -0.13079999 -1.6397001 -0.014040947 -0.20284632 -0.012361348 0.2037071
0.889 -0.13067 -1.638 -0.78925049 0.062225901 0.54664207 0.96208417
0.89107001 -0.13045999 -1.6355 -0.77659309 -0.014471062 0.59247577 0.9769001
0.8926 -0.12886 -1.6153001 -0.6121195 -0.013756484 0.69005275 0.92252493
0.89573997 -0.12878001 -1.6144 -0.53621793 -0.024106845 0.72686505 0.90357274
0.89832002 -0.12864999 -1.6127 -0.55431044 -0.12994096 0.7387678 0.93269634
0.90088999 -0.12851 -1.6109 -0.4920429 -0.24746758 0.78503281 0.95896971
0.90570998 -0.12863 -1.6125 -0.21951859 -0.22697377 0.87880993 0.93381602
0.90998 -0.12869 -1.6131999 0.17944512 0.26278937 0.091235518 0.33103281
0.91425002 -0.12875 -1.6138999 0.11918385 0.21948814 0.078802913 0.2618964
0.91851997 -0.1288 -1.6145999 -0.00081318244 0.44160965 0.037677288 0.44321474
0.9228 -0.12886 -1.6153001 -0.010339404 0.49184489 0.011845559 0.49209616
0.92708999 -0.12891001 -1.6160001 -0.046103898 0.42119232 -0.02543363 0.42447075
0.92966998 -0.12876999 -1.6142 0.060519461 0.41358259 -0.026551932 0.41882953
0.87904 -0.12964 -1.6458 -0.029027075 -0.24389878 -0.020832539 0.24650189
0.88058001 -0.12938 -1.6424 -0.84533942 0.048203625 0.47594738 0.97131258
0.89112997 -0.12751 -1.6188 -0.70858532 -0.097397007 0.65174812 0.96765429
0.89371997 -0.12738 -1.6171 -0.59312803 -0.034602493 0.71297753 0.92808145
0.89517999 -0.12711 -1.6137 -0.62977052 -0.20700575 0.70678902 0.9690268
0.89888 -0.12711 -1.6136 -0.56018895 -0.12015966 0.72605503 0.92488152
0.90257001 -0.12710001 -1.6135 -0.48334754 -0.17734742 0.78119159 0.93559462
0.90627003 -0.12709001 -1.6134 -0.23677875 -0.16626558 0.86305821 0.91026253
0.91053998 -0.12715 -1.6142 0.13191572 0.18198547 0.091190159 0.24256156
0.91593999 -0.12734 -1.6165 0.054495275 0.36626163 0.069374025 0.3767361
0.91908997 -0.12726 -1.6156 0.028317904 0.42259338 0.054637879 0.4270508
0.9228 -0.12725 -1.6154 -0.012393866 0.47594047 0.034465015 0.47734764
0.92537999 -0.12711 -1.6137 -0.020676311 0.46220624 0.0379861 0.46422523
0.92852998 -0.12704 -1.6127 -0.20432982 0.18120694 0.02669698 0.2744073
0.88275999 -0.12803 -1.6459 -0.029383034 -0.22907451 -0.04144083 0.23463981
0.88375002 -0.1277 -1.6417 -0.824669 -0.011595175 0.52713126 0.97881603
0.88638002 -0.12757 -1.64 -0.036981553 -0.19089347 -0.053595483 0.20169389
0.88964999 -0.12620001 -1.6223 -0.73644894 -0.13057989 0.63775098 0.98292136
0.89223999 -0.12605999 -1.6206 -0.70636368 -0.16014084 0.66530192 0.98347414
0.89538997 -0.12599 -1.6197 -0.6549058 -0.12423908 0.69766957 0.96492475
0.89740998 -0.12579 -1.6171 -0.55432898 -0.07817322 0.7378158 0.92615539
0.90055001 -0.12571999 -1.6162 -0.55825728 -0.12091739 0.73186558 0.92838544
0.90257001 -0.12552001 -1.6137 -0.4696523 -0.15069886 0.76773131 0.91252112
0.90684003 -0.12558 -1.6144 -0.1554604 0.014199108 0.76299846 0.77880436
0.91053998 -0.12557 -1.6143 -0.14982112 -0.38596934 0.8732878 0.96646279
0.91425002 -0.12556 -1.6142 0.18169884 0.22113919 0.088728786 0.29964948
0.92110002 -0.12548 -1.6131001 0.0058076922 0.4452064 0.079061657 0.45220926
0.92480999 -0.12547 -1.613 -0.028803458 0.4787569 0.048946947 0.48211369
0.92795998 -0.12540001 -1.612 -0.22616372 0.23316303 0.063939452 0.33106387
0.88275999 -0.12643 -1.646 -0.83891982 0.10568003 0.43785465 0.95219296
0.89020997 -0.12468 -1.6233 -0.75586891 -0.10187064 0.61491108 0.97970968
0.89279997 -0.12455 -1.6215 -0.7027809 -0.13092107 0.66495049 0.97631985
0.89594001 -0.12448 -1.6206 -0.64174062 -0.083575994 0.69574094 0.95019549
0.89908999 -0.12441 -1.6197 -0.55639482 -0.06248568 0.72566354 0.91655183
0.90110999 -0.12421 -1.6172 -0.5013603 -0.092168435 0.74446356 0.90226555
0.90257001 -0.12395 -1.6138 -0.53213096 -0.35040507 0.73762596 0.9746995
0.88472998 -0.12419 -1.6377 -0.14591795 0.17925695 -0.072605371 0.2422739
0.88501 -0.12336 -1.6267999 -0.77264184 -0.10250612 0.59292036 0.97930455
0.88964999 -0.12304 -1.6224999 -0.74407506 -0.14585777 0.62763965 0.98430365
0.89594001 -0.1229 -1.6208 -0.65809178 -0.16297123 0.68785381 0.96580917
0.89908999 -0.12283 -1.6199 -0.52128094 -0.0016750693 0.70414102 0.8761
0.90110999 -0.12264 -1.6173 -0.52836156 -0.093682781 0.70756233 0.88802415
0.91315001 -0.12147 -1.6019 -0.027346719 0.12009031 0.16420878 0.20526581
0.91855001 -0.12164 -1.6042 0.016029127 0.79583764 -0.55320013 0.96935278
0.89279997 -0.12135 -1.6217999 -0.69479561 -0.17541404 0.654423 0.97045374
0.89594001 -0.12128 -1.6209 -0.62955683 -0.098064244 0.67893004 0.931077
0.89908999 -0.12122 -1.62 -0.58341235 -0.17307988 0.71055138 0.93552655
0.91315001 -0.11987 -1.602 -0.048236731 0.11900598 0.16618539 0.21001618
0.91570002 -0.11974 -1.6002001 -0.027519315 0.12450585 0.19410822 0.23224345
0.87730998 -0.1209 -1.638 0.011725456 0.10474087 0.18575165 0.21356921
0.89640999 -0.11847 -1.6051 -0.060118496 0.1411522 0.13504781 0.204392
0.89130998 -0.11837 -1.6253999 -0.037130326 -0.16952412 -0.10441869 0.20253482
0.89295 -0.11733 -1.6111 -0.10951298 0.19671236 0.18374312 0.29060349
0.89551997 -0.11721 -1.6094 -0.086471751 0.17538135 0.15974423 0.25249594
0.89809 -0.11708 -1.6076 -0.050564915 0.14167759 0.15536693 0.21625964
0.89037001 -0.11713 -1.6296999 -0.7627244 -0.074776664 0.55690718 0.94735718
0.89205003 -0.1161 -1.6154 -0.096263498 0.16082788 0.093310878 0.20937809
0.89239001 -0.11574 -1.6104 -0.10819173 0.18072769 0.16396913 0.26693413
0.89495999 -0.11561 -1.6087 -0.085912555 0.16424033 0.14327094 0.23426996
0.87795001 -0.11661 -1.6451 -0.52433783 0.14511885 0.59640634 0.80727327
0.87949002 -0.11637 -1.6417 0.055913746 -0.23478025 0.14118624 0.27960986
0.87937999 -0.11595 -1.6358 -0.0091406107 -0.35011056 0.032073528 0.35169542
0.88836002 -0.11452 -1.6156 -0.067998081 0.16539373 0.12392125 0.21756676
0.88871002 -0.11416 -1.6106 -0.09747085 0.16039696 0.14537662 0.23740706
0.87795001 -0.11494 -1.6452 -0.54003841 0.14769074 0.58986157 0.8132593
0.88003999 -0.11477 -1.6427 -0.015491873 -0.34373206 0.0013785809 0.34408376
0.87993002 -0.11436 -1.6368001 -0.019979894 -0.36771303 0.010023415 0.36839181
0.88253999 -0.11424 -1.6351 -0.010113478 -0.3255623 -0.018501207 0.32624435
0.88375002 -0.11318 -1.62 -0.11205626 0.17091645 0.13688286 0.24597959
0.88467002 -0.11289 -1.6158 -0.12151235 0.18042065 0.13053939 0.25368759
0.88891 -0.11294 -1.6165 -0.077256888 0.14876875 0.13645436 0.21614939
0.88058001 -0.11319 -1.6436 -0.76806331 0.079076946 0.47163206 0.90477133
0.88321 -0.11307 -1.6418999 0.01785937 -0.35966721 0.076380566 0.3681215
0.88253999 -0.11261 -1.6352 0.062728047 -0.21643093 0.072990105 0.23686433
0.88485003 -0.11168 -1.6217 -0.11736989 0.17678791 0.12833282 0.24798986
0.88356 -0.11116 -1.6142 -0.16921313 0.20379259 0.16220501 0.31060421
0.88375002 -0.1115 -1.6429 0.044498324 -0.30889362 0.084352992 0.32328132
0.87314999 -0.10816 -1.6440001 -0.68530518 -0.29280937 0.48313737 0.88814539
0.87577999 -0.10804 -1.6423 -0.6305474 -0.318133 0.57470757 0.91054237
0.87295997 -0.10738 -1.6322 -0.24404329 0.2664544 0.14502046 0.38934049
0.87555999 -0.10727 -1.6306 -0.19659325 0.20910582 0.08012253 0.29798284
