# .PCD v0.7 - Point Cloud Data file format
VERSION 0.7
FIELDS x y z normal_x normal_y normal_z curvature
SIZE 4 4 4 4 4 4 4
TYPE F F F F F F F
COUNT 1 1 1 1 1 1 1
WIDTH 641
HEIGHT 1
VIEWPOINT 0 0 0 1 0 0 0
POINTS 641
DATA ascii
-0.19453999 0.35674 -1.2793 -0.25811216 -0.5048089 0.82131481 0.99800402
-0.12834001 0.35932001 -1.2885 0.1518954 0.059793852 -0.15590903 0.22573246
-0.20189001 0.36059999 -1.2911 0.21495166 -0.09688545 0.21850531 0.32145852
-0.1992 0.35877001 -1.2845 0.48103011 0.41729185 -0.75026882 0.98408628
-0.19453999 0.35725999 -1.2790999 -0.25175226 -0.51884985 0.81518948 0.9985581
-0.12842 0.36065 -1.2912 0.12854606 0.1039912 -0.17033035 0.23738299
-0.20189001 0.36109 -1.2909 0.21143715 -0.087647282 0.22225262 0.31903598
-0.12834001 0.36032999 -1.2882 0.15470514 0.075257488 -0.1492915 0.2277835
-0.2018 0.36126 -1.2898999 0.21847789 -0.088244379 0.22372968 0.3249225
-0.12827 0.35995999 -1.2852 0.16226313 0.057533681 -0.13604838 0.21942791
-0.20171 0.36140999 -1.2888 0.19854818 -0.07028991 0.1887072 0.28279403
-0.20162 0.36149001 -1.2877001 0.20813765 -0.072177961 0.17934297 0.28406838
-0.19463 0.35921001 -1.2796 0.2763066 0.52944279 -0.79861861 0.9972195
-0.1284 0.36206999 -1.2898 0.13644633 0.099281661 -0.16613865 0.23680477
-0.20206 0.36326 -1.2924 0.15208274 -0.10330716 0.23666379 0.2996853
-0.12848 0.3633 -1.2926 0.091107219 0.11192696 -0.17791563 0.22908981
-0.19471 0.36026001 -1.2803 0.27982342 0.52051711 -0.80140221 0.99573326
-0.12834001 0.36232001 -1.2877001 0.16367415 0.10118658 -0.16532777 0.25369513
-0.20153999 0.36236 -1.2864 0.18746951 -0.066290542 0.14749761 0.24757786
-0.19471 0.36061001 -1.2802 0.27449095 0.52539176 -0.79980481 0.9955247
-0.1284 0.36322001 -1.2895 0.12510157 0.088262275 -0.16479531 0.22494027
-0.20145001 0.36262 -1.2853 0.1821972 -0.057962045 0.13106111 0.23180257
-0.12848 0.36456001 -1.2922 0.089640409 0.10516464 -0.18692231 0.2324542
-0.20136 0.3628 -1.2843 0.16677406 -0.061719462 0.099310875 0.20367998
-0.19487 0.36212999 -1.2819 0.29176146 0.50385219 -0.80358315 0.99233949
-0.12848 0.36500999 -1.2921 0.085993171 0.11965024 -0.18164417 0.23389231
-0.20145001 0.36338001 -1.2851 0.1928173 -0.065527439 0.13869566 0.24639164
-0.19479001 0.36217001 -1.2808 0.27902102 0.5244993 -0.7961961 0.99341857
-0.20162 0.36430001 -1.2869 0.20737337 -0.081157506 0.18367881 0.28866616
-0.12842 0.36515999 -1.29 0.12247059 0.11949874 -0.19121848 0.25659987
-0.20153999 0.36434999 -1.2859 0.20769846 -0.076767027 0.15696718 0.27142313
-0.18404 0.36172 -1.2766 -0.025651133 0.68976784 -0.71239465 0.99193937
-0.19247 0.36234999 -1.2779 0.17440085 0.62197858 -0.7621066 0.99903929
-0.1904 0.3624 -1.278 0.11118817 0.63726294 -0.76180851 0.99940938
-0.18818 0.3619 -1.2762001 0.056956436 0.70137429 -0.6922065 0.9870764
-0.12834001 0.36491999 -1.2869 0.14977655 0.11534733 -0.15025061 0.24148139
-0.19479001 0.36331999 -1.2805001 0.28708127 0.53440195 -0.78512228 0.99217844
-0.19231001 0.36201 -1.2759 0.18430319 0.69591051 -0.68308103 0.99240053
-0.18818 0.36210001 -1.2762001 0.054565918 0.7034502 -0.69105726 0.98761314
-0.18618999 0.36241001 -1.2773 0.014292371 0.67879736 -0.72279149 0.99166411
-0.13043 0.36511001 -1.2868 0.14956337 0.10822945 -0.10845819 0.21411678
-0.12848 0.36649001 -1.2917 0.086685866 0.10857274 -0.19485113 0.23931035
-0.20145001 0.36480001 -1.2847 0.18395424 -0.072665513 0.11562586 0.2291043
-0.18404 0.36243999 -1.2764 -0.025994129 0.74572009 -0.63588691 0.98037052
-0.18189999 0.36221001 -1.2756 -0.053794652 0.73672628 -0.63571233 0.97457153
-0.1797 0.3617 -1.2738 -0.071477547 0.75155854 -0.60940081 0.97021574
-0.17569999 0.36232001 -1.276 -0.049980223 0.67599082 -0.71536338 0.98549807
-0.12848 0.36675 -1.2916 0.087469935 0.11948167 -0.19156995 0.24212788
-0.18618999 0.36296999 -1.2771 0.015442402 0.7411778 -0.63658452 0.97715038
-0.18404 0.36274001 -1.2763 -0.025293374 0.76482058 -0.60656476 0.97647893
-0.18198 0.36278 -1.2765 -0.057743698 0.73570287 -0.63612717 0.97429502
-0.17984 0.36254999 -1.2757 -0.063342795 0.71549177 -0.66947591 0.9819057
-0.1304 0.36539999 -1.2857 0.15018329 0.1116956 -0.096852601 0.21074001
-0.12848 0.36704999 -1.2915 0.082297266 0.1089108 -0.18247658 0.22788617
-0.20118999 0.36460999 -1.2817 0.16596264 -0.070078298 0.093471438 0.20295683
-0.19262999 0.36399001 -1.2795 -0.16353929 -0.59911585 0.78075898 0.99763191
-0.18832999 0.36353001 -1.2779 0.047139917 0.69784784 -0.70511782 0.9931792
-0.18611 0.36302999 -1.2761 0.015865892 0.7819429 -0.54520172 0.95337892
-0.18397 0.3628 -1.2753 -0.015529775 0.79282844 -0.52877367 0.95311058
-0.17817999 0.36454999 -1.2815 0.014198404 0.19287132 0.06216988 0.20314042
-0.17577 0.36322999 -1.2768 -0.043381266 0.7223103 -0.64549059 0.96967632
-0.18826 0.36359 -1.2768 0.044810019 0.75795817 -0.61052358 0.97429341
-0.18611 0.36335999 -1.276 0.017976454 0.79325891 -0.52542168 0.95165688
-0.18419001 0.36395001 -1.2781 -0.025986366 0.73206151 -0.66029859 0.98619652
-0.18262 0.36590001 -1.2849 0.060710959 0.40545279 0.038380861 0.41176555
-0.18061 0.36621001 -1.286 0.025157157 0.35752764 0.036569268 0.36027241
-0.17825 0.36515999 -1.2823 0.01507606 0.25130183 0.061778367 0.25922281
-0.17584001 0.36383 -1.2776999 -0.029181145 0.6526413 -0.737827 0.98548514
-0.13043 0.36634001 -1.2865 0.13820195 0.13565113 -0.094046503 0.21528064
-0.20153999 0.36634001 -1.2853 0.19351088 -0.10712972 0.12160414 0.25240999
-0.19047999 0.36438999 -1.2785 0.10231727 0.68523538 -0.71627367 0.99652618
-0.18832999 0.36416 -1.2776999 0.040865194 0.75996244 -0.61215287 0.9767006
-0.18618999 0.36392999 -1.2769001 0.010870312 0.78609812 -0.55059266 0.95980239
-0.18448 0.36533999 -1.2818 0.059305608 0.24231336 0.081933081 0.26257563
-0.17791 0.36409 -1.2774 -0.046084404 0.75380236 -0.57490504 0.94913518
-0.1759 0.3644 -1.2785 -0.022279516 0.71299559 -0.64468753 0.96149945
-0.17169 0.3642 -1.2778 -0.025300514 0.6042254 -0.7583431 0.96995503
-0.16542 0.36403 -1.2772 0.0075330716 0.5482046 -0.81856036 0.98520356
-0.12845001 0.36774999 -1.2903 0.094008088 0.1187363 -0.18539312 0.23938765
-0.20153999 0.36656001 -1.2853 0.19564228 -0.11027384 0.12280974 0.25596574
-0.19017 0.36352 -1.2746 0.078118749 0.81509376 -0.46962672 0.94394362
-0.18832999 0.36438 -1.2776 0.038851757 0.78153461 -0.57215869 0.96936649
-0.18611 0.36388001 -1.2758 0.018930485 0.81191254 -0.48597667 0.94643205
-0.18189999 0.36368999 -1.2752 -0.026009034 0.81331897 -0.44285956 0.92643881
-0.17997999 0.36427 -1.2772 -0.047364525 0.78041166 -0.50554776 0.93105549
-0.17163 0.36414999 -1.2768 -0.03619419 0.59858596 -0.77120054 0.97691631
-0.16553999 0.36480001 -1.2790999 0.030260846 0.5416941 -0.82216716 0.98504168
-0.12848 0.36825001 -1.2912 0.079036623 0.11783288 -0.18354684 0.23199314
-0.12782 0.38444 -1.3479 -0.18159537 -0.089529097 -0.013892964 0.20294175
-0.20145001 0.36649999 -1.2842 0.18590647 -0.10866366 0.10117516 0.23791894
-0.19032 0.36427999 -1.2764 0.084507391 0.79790866 -0.54110777 0.96777958
-0.18826 0.36432001 -1.2766 0.039005369 0.79673147 -0.52230549 0.95347023
-0.18589 0.36327001 -1.2729 0.0028104093 0.82843143 -0.37439409 0.90910804
-0.18359999 0.36249 -1.2702 -0.019193785 0.8432079 -0.32754907 0.9047963
-0.18198 0.36418 -1.2761 -0.032379333 0.81767309 -0.43808478 0.92820042
-0.17997999 0.36449 -1.2772 -0.045035295 0.78572702 -0.49529219 0.92989755
-0.17797001 0.36480001 -1.2783 -0.043886125 0.75862068 -0.56853181 0.94903094
-0.17597 0.36511999 -1.2794 -0.023331217 0.26419374 0.075736463 0.27582365
-0.12782 0.38466999 -1.3479 -0.18159537 -0.089529097 -0.013892964 0.20294175
-0.20118999 0.36588001 -1.2812999 0.16486804 -0.093516424 0.078060657 0.20498843
-0.19231001 0.36416 -1.2753 0.023918856 0.12161627 0.203612 0.23837046
-0.19024999 0.3642 -1.2754 0.082510345 0.81630492 -0.48781258 0.9545275
-0.18803 0.3637 -1.2737 -0.01273639 0.15535581 0.32307768 0.35871553
-0.18618999 0.36456999 -1.2767 0.014553631 0.81482834 -0.48297194 0.94732195
-0.18375 0.36324 -1.272 -0.019120794 0.84211946 -0.3499105 0.91212285
-0.18189999 0.36410001 -1.2751 -0.028154857 0.8254534 -0.41895401 0.92611468
-0.17984 0.36414 -1.2752 -0.041046165 0.81439257 -0.41853681 0.9165659
-0.17777 0.36418 -1.2753 -0.050984543 0.79518533 -0.48771787 0.93423116
-0.1759 0.36504 -1.2783999 -0.020037958 0.77469695 -0.42921862 0.88588119
-0.17377 0.36480001 -1.2775 -0.026924908 0.65571117 -0.71496427 0.97049266
-0.17163 0.36456999 -1.2767 -0.030796643 0.67797095 -0.64294374 0.93486345
-0.16956 0.3646 -1.2768 -0.027002569 0.66477454 -0.66216969 0.93868154
-0.16743 0.36436 -1.276 -0.017131174 0.69419652 -0.53447449 0.87627923
-0.16537 0.3644 -1.2761 -0.011330483 0.57474089 -0.79645026 0.9822365
-0.16317999 0.36388001 -1.2743 -0.051745284 0.61573392 -0.74347413 0.96672624
-0.12845001 0.36838999 -1.2901 0.087312371 0.12602228 -0.18054086 0.23685452
-0.20153999 0.36717001 -1.2851 0.18963905 -0.10341719 0.1184341 0.24634269
-0.19001 0.36357 -1.2725 -0.0082105603 0.13708001 0.32956767 0.35703388
-0.18780001 0.36307001 -1.2707 0.040797256 0.83763909 -0.33234799 0.90208584
-0.18544 0.36201999 -1.267 0.0026496984 0.090589732 0.40000325 0.41014159
-0.18337999 0.36206001 -1.2672 0.019270377 0.049526632 0.30738771 0.31194782
-0.18162 0.36320001 -1.2711999 -0.032725461 0.84612906 -0.33574203 0.9108941
-0.1797 0.36379001 -1.2732 -0.047933135 0.82974303 -0.41969782 0.93108392
-0.17777 0.36436999 -1.2753 -0.042577218 0.79898334 -0.45597881 0.92092556
-0.1759 0.36522999 -1.2783 -0.023020817 0.77530944 -0.44702944 0.89524853
-0.17383 0.36526999 -1.2783999 -0.02232077 0.69768345 -0.63598514 0.94431853
-0.16968 0.36533999 -1.2787 -0.0038146172 0.54944932 -0.81374943 0.98188454
-0.16755 0.3651 -1.2778 0.0083828662 0.54984987 -0.81048542 0.97943443
-0.16542 0.36486 -1.277 0.0097300746 0.62241685 -0.73732352 0.96495771
-0.16324 0.36434001 -1.2752 -0.040152848 0.62460029 -0.73162818 0.96281749
-0.12785 0.38534999 -1.3487 -0.18263845 -0.094643474 -0.017012417 0.20640643
-0.2018 0.36816001 -1.2879 0.2092725 -0.13477682 0.2078127 0.32426205
-0.18970001 0.36263999 -1.2686 -0.015026718 0.11120889 0.40634936 0.4215602
-0.18795 0.36377999 -1.2726001 -0.0065043997 0.15217754 0.36844096 0.39868414
-0.18618999 0.36491999 -1.2766 0.010705738 0.83151031 -0.44694635 0.94407892
-0.18426 0.36550999 -1.2787 -0.022675985 0.8026799 -0.53010732 0.96219701
-0.18226001 0.36583 -1.2798001 -0.0077665439 0.7367301 -0.17771581 0.75790131
-0.17997999 0.36504999 -1.277 -0.034307458 0.81283474 -0.35909423 0.88928401
-0.1777 0.36425999 -1.2743 -0.043902874 0.80089939 -0.47620362 0.93281144
-0.17584001 0.36511999 -1.2773 -0.02811534 0.78805202 -0.38264805 0.87649071
-0.17201 0.36657 -1.2823 0.0079831891 0.63976085 -0.21993683 0.67655736
-0.16553999 0.36557999 -1.2789 0.028073715 0.62126285 -0.73211312 0.96059632
-0.16324 0.36451 -1.2751 -0.041899148 0.62168479 -0.73710233 0.96517736
-0.13038 0.36708999 -1.2842 0.14448956 0.12127964 -0.084366649 0.20664878
-0.20162 0.36776999 -1.2859 0.2023968 -0.11092706 0.15426753 0.27761078
-0.19223 0.3644 -1.2742 0.014555391 0.12334272 0.25786734 0.2862182
-0.19001 0.36390001 -1.2724 -0.008444069 0.12993997 0.33172077 0.3563627
-0.18803 0.36421999 -1.2735 -0.012971836 0.15520778 0.37737364 0.40825063
-0.18611 0.36480999 -1.2756 -0.02262664 0.15599871 0.33848721 0.37339142
-0.18426 0.36567 -1.2786 -0.018684637 0.83230758 -0.42821521 0.93619084
-0.18233 0.36625999 -1.2807 0.017127473 0.5510031 0.030885518 0.55213374
-0.18026 0.36629999 -1.2808 0.012977019 0.57799804 -0.011608213 0.57826024
-0.17791 0.36524999 -1.2771 -0.029353201 0.80202854 -0.36786252 0.88285565
-0.17597 0.36583 -1.2792 -0.015421733 0.68669599 -0.16633105 0.70672148
-0.17402001 0.36642 -1.2812001 -0.024860736 0.60472894 -0.14219159 0.62171829
-0.17195 0.36646 -1.2812999 0.0036709569 0.67649204 -0.29794961 0.73920828
-0.16731 0.36432999 -1.2739 -0.025218589 0.69996035 -0.50454336 0.86321753
-0.16525 0.36436 -1.274 -0.030710686 0.62053627 -0.74667084 0.97135252
-0.16335 0.36522001 -1.277 -0.013079652 0.61991644 -0.73625445 0.96256852
-0.13038 0.36725 -1.2841001 0.14399716 0.13238841 -0.081162125 0.21177621
-0.20171 0.36818001 -1.2869 0.21455519 -0.12269982 0.19391465 0.31415296
-0.19223 0.36453 -1.2740999 0.0091048181 0.12726724 0.27144131 0.2999337
-0.19032 0.36513001 -1.2762001 -0.0013141558 0.13846615 0.24866399 0.28461972
-0.18826 0.36517 -1.2764 0.034636281 0.83111942 -0.42021132 0.93195319
-0.18626 0.36548999 -1.2775 0.0099366987 0.83296096 -0.41869456 0.93232393
-0.18426 0.36581001 -1.2786 -0.013087459 0.82961434 -0.38887724 0.91632789
-0.18226001 0.36612001 -1.2797 -0.015696237 0.76790309 -0.25899032 0.81055379
-0.18019 0.36616001 -1.2798001 -0.0076270229 0.70563662 -0.14545307 0.72051215
-0.17791 0.36537999 -1.2771 -0.032430649 0.80424345 -0.34871602 0.87718987
-0.17617001 0.36679 -1.2819999 -0.0076468503 0.36644036 0.037514269 0.36843497
-0.17396 0.36627999 -1.2802 -0.018274361 0.55618644 -0.082111537 0.56251192
-0.17175999 0.36577001 -1.2783999 -0.010427237 0.70761627 -0.50700331 0.8705641
-0.16962001 0.36553001 -1.2776 -0.01457311 0.66447896 -0.63176453 0.91699022
-0.16351999 0.36618 -1.2799 0.0076016616 0.56714094 -0.80279636 0.98294896
-0.1304 0.36765999 -1.285 0.16010001 0.17010804 -0.11042616 0.25838476
-0.20162 0.36803001 -1.2859 0.20172726 -0.11465867 0.15388885 0.27842823
-0.19422001 0.36434001 -1.273 0.009686403 0.10537446 0.24984746 0.27133256
-0.19215 0.36438999 -1.2731 0.00045536831 0.12199891 0.3080197 0.33130059
-0.18803 0.36447999 -1.2733999 -0.0093754586 0.14308387 0.37210432 0.39877626
-0.18626 0.36561999 -1.2774 0.010141962 0.83759236 -0.39584896 0.92647731
-0.18426 0.36592999 -1.2785 -0.01418783 0.83046919 -0.40846437 0.92559361
-0.18205 0.36543 -1.2768 -0.028338172 0.83111608 -0.31173578 0.88810819
-0.17991 0.36519 -1.2759 -0.03665258 0.83107966 -0.31205148 0.88848913
-0.17777 0.36496001 -1.2751 -0.037681341 0.81199741 -0.39552009 0.90398884
-0.1761 0.36664 -1.281 -0.0052703144 0.43436283 0.018619299 0.43479365
-0.1737 0.36531001 -1.2763 -0.033390332 0.75066084 -0.43189901 0.86668527
-0.17169 0.36561999 -1.2774 -0.026625892 0.70936453 -0.53119785 0.88661045
-0.16956 0.36537999 -1.2766 -0.023488756 0.70162612 -0.55081564 0.89231652
-0.16749001 0.36541 -1.2767 -0.006982889 0.6981802 -0.51007193 0.86468357
-0.16329999 0.36520001 -1.276 -0.023067914 0.65635186 -0.67979008 0.9452219
-0.13034999 0.36724001 -1.2831 0.13715354 0.13816121 -0.065894514 0.20552786
-0.20145001 0.36758 -1.2839 0.18389438 -0.10512178 0.095958412 0.23254193
-0.19231001 0.36502999 -1.275 0.015276264 0.12082365 0.2396099 0.2687836
-0.18795 0.36430001 -1.2725 -0.0033278875 0.13529271 0.36657429 0.3907581
-0.18634 0.36599001 -1.2783999 0.014661891 0.83163357 -0.37782091 0.9135524
-0.18426 0.36603001 -1.2785 -0.014930959 0.83634424 -0.37577969 0.91700876
-0.18212 0.36579999 -1.2776999 -0.032088686 0.81485194 -0.34002468 0.88353276
-0.18005 0.36583999 -1.2778 -0.026407313 0.79088604 -0.31713283 0.85250884
-0.17797001 0.36588001 -1.278 -0.026364153 0.79968667 -0.3214725 0.86228669
-0.1759 0.36592001 -1.2781 -0.025388423 0.77111381 -0.346917 0.84593886
-0.17351 0.36458001 -1.2733999 -0.055254139 0.77767038 -0.41549805 0.88343805
-0.17169 0.36572 -1.2774 -0.026704274 0.71237445 -0.52973747 0.88815105
-0.16962001 0.36575001 -1.2775 -0.019614516 0.69352978 -0.53411293 0.87558258
-0.16743 0.36524001 -1.2757 -0.011067649 0.69989288 -0.48115277 0.8494001
-0.16531 0.36499 -1.2749 -0.0088224784 0.68617034 -0.62435269 0.92775202
-0.16324 0.36502999 -1.275 -0.038244247 0.63026202 -0.72513467 0.96151608
-0.13038 0.36761001 -1.284 0.14618979 0.15883286 -0.08188948 0.23087925
-0.12895 0.37450001 -1.3081 -0.46623358 0.37871936 0.089061677 0.60723478
-0.20162 0.36822999 -1.2858 0.20151465 -0.126515 0.14388548 0.27805975
-0.19207001 0.36431 -1.2721 -0.0099187382 0.10500708 0.30965498 0.32712549
-0.1904 0.36572 -1.2771 -0.0041450486 0.13027209 0.23743105 0.27085328
-0.18795 0.36438999 -1.2724 -0.0050933827 0.13743961 0.37913716 0.40331203
-0.18663999 0.36717999 -1.2822 -0.003751345 0.76948941 -0.18225862 0.79078835
-0.18448 0.36695001 -1.2814 0.010594585 0.74597561 -0.14234297 0.75950867
-0.1824 0.36699 -1.2815 0.0066083632 0.65934968 -0.039360851 0.66055655
-0.18019 0.36647999 -1.2797 -0.012000138 0.73120928 -0.17717236 0.75246334
-0.17791 0.36570001 -1.277 -0.029390574 0.80488437 -0.32255816 0.86760962
-0.17603999 0.36656001 -1.28 -0.01205173 0.55854732 -0.039995074 0.56010711
-0.1737 0.3655 -1.2763 -0.033330549 0.75310576 -0.43047383 0.86809385
-0.17151 0.36499 -1.2745 -0.044257645 0.73844421 -0.49355504 0.88930041
-0.16937999 0.36475 -1.2737 -0.035426244 0.72284842 -0.46011335 0.85759497
-0.16743 0.36533001 -1.2757 -0.012187558 0.70283467 -0.48132947 0.85194081
-0.16531 0.36509001 -1.2749 -0.0098193195 0.69851208 -0.5860523 0.91185135
-0.16335 0.36567 -1.2769001 -0.011989768 0.65849197 -0.67755592 0.94490075
-0.13043 0.36826 -1.2859 0.12770984 0.19354579 -0.08946988 0.24854504
-0.20171 0.36859 -1.2867 0.21566787 -0.14856197 0.18610139 0.32127407
-0.19238999 0.36548999 -1.2759 0.013387427 0.099881172 0.19058733 0.2155899
-0.19024999 0.36526 -1.2751 -0.0020891149 0.1315217 0.2954967 0.32345113
-0.18826 0.36557999 -1.2762001 -0.01609095 0.14933956 0.34822452 0.3792381
-0.18595999 0.36480001 -1.2735 -0.0056387042 0.14368996 0.38605198 0.41196451
-0.18456 0.36730999 -1.2823 0.023404427 0.68030143 -0.067981333 0.68409014
-0.18205 0.36570001 -1.2767 -0.027007643 0.844347 -0.28492382 0.89153403
-0.17997999 0.36574 -1.2768 -0.028067961 0.82642567 -0.29471204 0.87785101
-0.1777 0.36496001 -1.2740999 -0.041217074 0.82255065 -0.40988585 0.91994286
-0.17577 0.36555001 -1.2761 -0.030115873 0.78783417 -0.30875432 0.84671056
-0.17357001 0.36502999 -1.2743 -0.051307388 0.77335662 -0.43361437 0.88810718
-0.17157 0.36535001 -1.2754 -0.043016531 0.74490178 -0.45138237 0.87205225
-0.16956 0.36566001 -1.2765 -0.024313387 0.71715289 -0.4862752 0.86681199
-0.16761 0.36623999 -1.2786 0.017101478 0.54001379 -0.82181257 0.98350561
-0.16329999 0.36548001 -1.2759 -0.022270277 0.66242754 -0.67137319 0.94342369
-0.1304 0.36807001 -1.2849 0.15287948 0.18564327 -0.10463843 0.26226848
-0.20153999 0.36812001 -1.2848001 0.20137319 -0.10986279 0.12409469 0.26080739
-0.18611 0.36543 -1.2754 -0.017891346 0.14338943 0.35177818 0.38030058
-0.18412 0.36575001 -1.2765 -0.020451639 0.13309222 0.35903636 0.38345656
-0.18189999 0.36524001 -1.2747 -0.018884346 0.83729196 -0.29302478 0.88728684
-0.17984 0.36528 -1.2749 -0.039695419 0.84358382 -0.32903105 0.90635026
-0.17777 0.36532 -1.275 -0.032006722 0.81860495 -0.36656609 0.89750159
-0.17577 0.36563 -1.2761 -0.02865839 0.78554583 -0.30763572 0.84412277
-0.17364 0.36539 -1.2753 -0.046920575 0.76656222 -0.4194887 0.87509429
-0.17144001 0.36488 -1.2735 -0.051885333 0.7436009 -0.45276588 0.87214184
-0.16949999 0.36546001 -1.2755001 -0.027299782 0.72407717 -0.42382395 0.83944017
-0.16731 0.36495 -1.2737 -0.027455803 0.69823289 -0.5028187 0.86087728
-0.16525 0.36498001 -1.2738 -0.023833975 0.670757 -0.67262805 0.95021653
-0.13038 0.36787 -1.2839 0.14461577 0.17716634 -0.081521779 0.24279094
-0.20128 0.36739001 -1.2819 0.16094221 -0.10678458 0.061657786 0.20274867
-0.19199 0.36427999 -1.2711 -0.032599714 0.10001698 0.33914462 0.35508478
-0.19017 0.36515 -1.2740999 -0.0066479947 0.12243816 0.32627559 0.34855568
-0.18764 0.36355001 -1.2685 0.0058183558 0.083030283 0.37571427 0.38482347
-0.18581 0.36442 -1.2715 -0.0011753929 0.84514904 -0.30719933 0.89924955
-0.18397 0.36528 -1.2746 -0.0010194273 0.14249498 0.39267325 0.41772974
-0.18212 0.36614999 -1.2776 -0.02137216 0.82017052 -0.2916519 0.87074524
-0.18005 0.36618999 -1.2776999 -0.025264079 0.79926449 -0.29347944 0.85181701
-0.17791 0.36594999 -1.2769001 -0.02985004 0.80630726 -0.30612129 0.86297894
-0.17557 0.36489001 -1.2732 -0.049910679 0.80895913 -0.35946283 0.88663375
-0.17351 0.36493 -1.2733001 -0.049853604 0.77889454 -0.38181624 0.86887616
-0.17138 0.36469001 -1.2725 -0.054235708 0.75186658 -0.42315051 0.86446583
-0.16932 0.36473 -1.2726001 -0.042590905 0.73225152 -0.42739433 0.84892416
-0.16737001 0.36531001 -1.2747 -0.019661374 0.70176911 -0.46567219 0.8424471
-0.16542 0.36589 -1.2767 0.011908675 0.68539166 -0.62596178 0.92829508
-0.16335 0.36592999 -1.2768 -0.0096283546 0.66482234 -0.66183221 0.93813819
-0.13038 0.36796001 -1.2839 0.14223263 0.18633209 -0.079677194 0.24758479
-0.20136 0.36772999 -1.2828 0.17898354 -0.12750116 0.076337725 0.23263513
-0.19151001 0.36271 -1.2653 -0.028026886 0.010411561 0.27616531 0.27777901
-0.18945999 0.36274999 -1.2654999 -0.024978934 0.021968007 0.31860119 0.32033306
-0.18732999 0.36252001 -1.2647001 -0.005630265 0.0050010383 0.27945054 0.27955198
-0.18573999 0.36421001 -1.2706 0.0027624271 0.85006475 -0.29415885 0.89952606
-0.18412 0.36590001 -1.2765 -0.018020067 0.13198692 0.37364998 0.39668575
-0.18212 0.36622 -1.2776 -0.021151194 0.82616293 -0.28636813 0.87464237
-0.18012001 0.36654001 -1.2787 -0.014264382 0.76628608 -0.19501702 0.79084098
-0.17845 0.36822 -1.2846 -0.008150992 0.55645955 -0.033792615 0.55754423
-0.17577 0.36579001 -1.2761 -0.023967573 0.78179121 -0.29957992 0.83756799
-0.17383 0.36638001 -1.2781 -0.02416292 0.71152389 -0.29575157 0.77092093
-0.17157 0.36559001 -1.2754 -0.042704761 0.74301797 -0.4379499 0.86353898
-0.16962001 0.36616999 -1.2774 -0.020887116 0.70437086 -0.48327202 0.85447431
-0.16749001 0.36592999 -1.2766 -0.0082757287 0.70156133 -0.46507707 0.84175622
-0.16553999 0.36651999 -1.2786 0.017993325 0.68233782 -0.61471933 0.91857964
-0.16340999 0.36627001 -1.2778 -0.00175612 0.67661113 -0.64530402 0.93499893
-0.13038 0.36803001 -1.2839 0.14310214 0.19253653 -0.0809066 0.25316876
-0.20162 0.36859 -1.2857 0.2123542 -0.14397945 0.15934519 0.30201867
-0.19670001 0.36622 -1.2774 0.15149203 -0.14181317 -0.03586033 0.21058673
-0.19422001 0.36489001 -1.2728 -0.01773455 0.1067917 0.29439998 0.31367233
-0.19151001 0.36274001 -1.2653 -0.028152984 0.0096514225 0.27791113 0.27950016
-0.18945999 0.36278 -1.2654999 -0.024978934 0.021968007 0.31860119 0.32033306
-0.18741 0.36283001 -1.2656 -0.012046332 0.019894034 0.30777958 0.30865702
-0.18566 0.36397001 -1.2696 0.018358691 0.1071279 0.38742223 0.40237966
-0.18404 0.36566001 -1.2755001 -0.011175022 0.13204488 0.37704137 0.39965102
-0.18198 0.36570001 -1.2756 -0.026251297 0.84106529 -0.28598908 0.88874614
-0.17997999 0.36601999 -1.2767 -0.025719877 0.82286203 -0.27705565 0.86863297
-0.17791 0.36605999 -1.2769001 -0.03153564 0.80556691 -0.3083632 0.86314565
-0.17577 0.36581999 -1.2761 -0.023683753 0.78757548 -0.29534522 0.84146589
-0.17402001 0.36723 -1.281 -0.01874497 0.68481463 -0.27353337 0.73766047
-0.17182 0.36671999 -1.2792 -0.012263624 0.7030409 -0.33922499 0.78069872
-0.16968 0.36647999 -1.2783999 -0.015832456 0.69515586 -0.53923309 0.87992311
-0.16737001 0.36542001 -1.2746 -0.020002991 0.7000367 -0.46062264 0.83822715
-0.16531 0.36544999 -1.2747999 -0.015349864 0.6933884 -0.6038574 0.91960144
-0.16335 0.36603001 -1.2768 -0.011126722 0.66375566 -0.66309083 0.93828821
-0.12551001 0.38492 -1.3427 -0.19783661 -0.065471888 -0.018881969 0.20924249
-0.20602 0.3757 -1.3104 -0.27498347 0.14832342 0.065247416 0.31917545
-0.19199 0.36442 -1.271 -0.031085085 0.097824603 0.34263736 0.35768184
-0.19017 0.36528999 -1.2740999 -0.0096669886 0.11846453 0.32111946 0.34241056
-0.18764 0.36368001 -1.2685 0.0061809355 0.08162576 0.37371758 0.38257784
-0.18573999 0.36427 -1.2704999 0.0065112924 0.13594362 0.40302885 0.42538843
-0.18381999 0.36487001 -1.2726001 0.0060812533 0.12289819 0.38464984 0.40385202
-0.18176 0.36491001 -1.2728 0.0056448868 0.12626457 0.36113834 0.38261667
-0.17963 0.36467001 -1.2719001 0.030011728 0.118016 0.38405013 0.40289328
-0.17728999 0.36361 -1.2682 -0.076528475 0.87066418 -0.30379295 0.92531234
-0.17577 0.36585 -1.276 -0.02524576 0.79254812 -0.29497683 0.84603852
-0.17383 0.36644 -1.2781 -0.024008512 0.71245962 -0.29526514 0.77159357
-0.17188001 0.36702001 -1.2801 -0.0066759074 0.69762641 -0.31756544 0.76653445
-0.16944 0.36541 -1.2745 -0.027219668 0.72829854 -0.41739374 0.83986735
-0.16708 0.36407 -1.2697999 -0.036372926 0.72923827 -0.3959198 0.83058047
-0.16519 0.36493 -1.2728 -0.033380423 0.70509803 -0.60655272 0.93068993
-0.16335 0.36605999 -1.2768 -0.011122813 0.66381192 -0.6630649 0.93830973
-0.16128001 0.36609 -1.2769001 -0.035032697 0.58443135 -0.78961515 0.98299509
-0.18864 0.36726999 -1.2809 0.007924879 0.79155576 -0.18122393 0.81207478
-0.18649 0.36704001 -1.2801 0.0038829744 0.80547255 -0.23399679 0.83878219
-0.18404 0.36570999 -1.2755001 -0.009076667 0.13175887 0.3812547 0.40348226
-0.18183 0.36520001 -1.2737 -0.024053702 0.85696173 -0.31265855 0.91253346
-0.17976999 0.36524001 -1.2739 -0.032600645 0.84475744 -0.32405391 0.90536672
-0.17763001 0.36500001 -1.273 -0.040420987 0.84017241 -0.34974718 0.91095918
-0.17584001 0.36614001 -1.277 -0.029801041 0.77259928 -0.30648792 0.83170462
-0.17396 0.36700001 -1.28 -0.015134969 0.6825729 -0.24221992 0.72443449
-0.17195 0.36732 -1.2811 -0.0092506548 0.65853828 -0.2433608 0.70212728
-0.16968 0.36653 -1.2783 -0.014891976 0.69128382 -0.56049705 0.8900854
-0.16755 0.36629 -1.2775 0.0052918438 0.6188876 -0.72579348 0.953848
-0.12888999 0.37446001 -1.306 -0.80921006 0.33335832 0.072380483 0.87817287
-0.20110001 0.36700001 -1.2799 0.16235134 -0.10602918 0.063913494 0.20416924
-0.19405 0.3644 -1.2709 -0.036756717 0.094243556 0.34302405 0.35762885
-0.19191 0.36417001 -1.2701 -0.037349023 0.069856942 0.33686554 0.34605396
-0.19017 0.36531001 -1.2740999 -0.0096669886 0.11846453 0.32111946 0.34241056
-0.18826 0.36590999 -1.2761 -0.018491194 0.13999209 0.36186251 0.38843814
-0.18626 0.36623001 -1.2773 -0.022918867 0.14840469 0.36632374 0.39590693
-0.18412 0.36599001 -1.2764 -0.013817783 0.12777066 0.38225144 0.40327713
-0.18012001 0.36662999 -1.2786 -0.016609242 0.77058572 -0.21049598 0.79899108
-0.17804 0.36666 -1.2788 -0.027725985 0.78042185 -0.26947024 0.82609999
-0.17584001 0.36614999 -1.277 -0.027284106 0.77286756 -0.30366316 0.83083087
-0.17388999 0.36673999 -1.279 -0.019152893 0.70352304 -0.29133108 0.76169896
-0.17188001 0.36704999 -1.2801 -0.0052073449 0.69914258 -0.32331541 0.77029884
-0.13222 0.36590001 -1.2761 0.061527967 0.18984796 0.034299791 0.20249547
-0.19207001 0.36471999 -1.272 -0.018422917 0.1041384 0.32364637 0.34048668
-0.1904 0.36614001 -1.2769001 -0.0043767281 0.12509686 0.26910079 0.29678884
-0.1881 0.36535999 -1.2742 -0.012069762 0.12992799 0.36644194 0.38898158
-0.18604 0.36539999 -1.2744 -0.013070232 0.13367942 0.36452729 0.38848573
-0.18419001 0.36627001 -1.2774 -0.024224758 0.13059217 0.39510152 0.41682893
-0.18212 0.36631 -1.2775 -0.0200717 0.82718492 -0.27639356 0.87237102
-0.18005 0.36635 -1.2776999 -0.025333595 0.79773414 -0.2862013 0.84789902
-0.17811 0.36693999 -1.2797 0.0043170433 0.53142583 0.0057143271 0.53147411
-0.17377 0.36618999 -1.2771 -0.028996713 0.74485135 -0.32904243 0.81480873
-0.17151 0.36539999 -1.2744 -0.043628719 0.74285907 -0.48092532 0.88602042
-0.16968 0.36654001 -1.2783 -0.014847644 0.6996944 -0.506235 0.86375147
-0.16761 0.36657 -1.2785 0.015411643 0.547252 -0.81559992 0.98230618
-0.16553999 0.36660999 -1.2786 0.018098339 0.6823504 -0.61471564 0.91858852
-0.16329999 0.36581001 -1.2758 -0.022170559 0.6708321 -0.65226758 0.93592745
-0.16128001 0.36612001 -1.2769001 -0.035222072 0.5843091 -0.78966981 0.98297316
-0.13038 0.36812001 -1.2839 0.14302814 0.193261 -0.080530614 0.25355875
-0.20153999 0.36838001 -1.2847 0.19949412 -0.11763345 0.11346048 0.25789303
-0.19223 0.36526999 -1.2739 -0.0058157109 0.12105566 0.30385914 0.32713708
-0.18993001 0.36449 -1.2711999 -0.018637922 0.11074194 0.36379668 0.38073504
-0.1881 0.36535999 -1.2742 -0.012069762 0.12992799 0.36644194 0.38898158
-0.18604 0.36539999 -1.2744 -0.013070232 0.13367942 0.36452729 0.38848573
-0.18426 0.36655 -1.2783999 -0.0088539608 0.8412168 -0.31013986 0.89661074
-0.18226001 0.36686 -1.2795 -0.0070843091 0.78043604 -0.21915297 0.81065321
-0.18026 0.36717999 -1.2806 -0.017969573 0.71947002 -0.13381848 0.73202962
-0.17845 0.36831999 -1.2845 -0.010108138 0.57940149 -0.054164201 0.58201545
-0.17577 0.36588001 -1.276 -0.023182906 0.7903949 -0.28519934 0.84059513
-0.1737 0.36592001 -1.2762001 -0.032998979 0.76521862 -0.35822091 0.84555936
-0.17163 0.36596 -1.2763 -0.030842282 0.73337603 -0.40040493 0.83613139
-0.16962001 0.36627001 -1.2774 -0.020939242 0.7033239 -0.48373964 0.85387766
-0.16755 0.36629999 -1.2775 0.0052918438 0.6188876 -0.72579348 0.953848
-0.16542 0.36605999 -1.2767 0.012325712 0.68534732 -0.60909933 0.91698134
-0.16346 0.36664 -1.2787 0.0016281735 0.68932456 -0.61804229 0.92582244
-0.16134 0.3664 -1.2778 -0.029979613 0.59161115 -0.78611332 0.98431534
-0.13034999 0.36785001 -1.2829 0.13831964 0.18177798 -0.065973014 0.23775618
-0.20153999 0.36838999 -1.2847 0.19931929 -0.11482377 0.11511239 0.25722274
-0.1943 0.36524001 -1.2737 -0.018123254 0.1047124 0.2893059 0.30820617
-0.19207001 0.36474001 -1.272 -0.017070279 0.098792493 0.31679741 0.33228293
-0.18954 0.36313999 -1.2664 -0.027868509 0.029694587 0.32176608 0.32433289
-0.18795 0.36482999 -1.2723 0.00070917234 0.12530765 0.375379 0.39574221
-0.18611 0.36570001 -1.2753 -0.018674016 0.13704929 0.34331048 0.37012607
-0.18404 0.36574 -1.2755001 -0.011285222 0.13208032 0.3765249 0.39917862
-0.18233 0.36715999 -1.2804 -0.0048516858 0.73130614 -0.086084098 0.73637128
-0.18026 0.36719999 -1.2806 -0.018037688 0.72170997 -0.13214874 0.73393047
-0.17851999 0.36860999 -1.2855 0.014815412 0.60070992 -0.10615021 0.61019647
-0.17597 0.36671999 -1.2789 -0.02272623 0.74002469 -0.25088495 0.78172648
-0.17402001 0.36730999 -1.281 -0.017165842 0.68491095 -0.27245945 0.73731393
-0.17188001 0.36706999 -1.2801 -0.0039082812 0.69799554 -0.32156157 0.76851475
-0.16944 0.36546001 -1.2745 -0.027190575 0.7332769 -0.41479018 0.84290284
-0.16548 0.36635 -1.2776 0.01178856 0.70995712 -0.51658469 0.87808758
-0.16351999 0.36693001 -1.2796 0.0090377694 0.64858997 -0.70869744 0.96073025
-0.1304 0.36842 -1.2848001 0.13888738 0.21816193 -0.092966467 0.27482191
-0.12561999 0.38637999 -1.3474 -0.18424471 -0.089310884 -0.016990028 0.20545365
-0.17804 0.36669999 -1.2788 -0.022737307 0.76833642 -0.23173134 0.80284327
-0.17617001 0.36756 -1.2818 -0.014651271 0.52363497 -0.028777272 0.52462977
-0.17415 0.36787 -1.2829 0.015590968 0.66125596 -0.22629675 0.69907993
-0.19389001 0.36388001 -1.2690001 -0.074963868 0.075964272 0.35351714 0.36927566
-0.18032999 0.36748001 -1.2815 -0.0015601497 0.63774741 -0.068954945 0.64146626
-0.16949999 0.36575001 -1.2754 -0.024173595 0.72156465 -0.41094011 0.8307296
-0.16531 0.36554 -1.2747 -0.014910878 0.68002403 -0.64405704 0.93673074
-0.19001 0.36480001 -1.2721 -0.0065036807 0.10129875 0.33462489 0.34968206
-0.12561999 0.38639 -1.3474 -0.18424471 -0.089310884 -0.016990028 0.20545365
-0.1259 0.3897 -1.359 0.78533989 -0.48661977 -0.15705982 0.93713677
-0.19504 0.36772999 -1.2824 -0.28087294 -0.4743681 0.81080043 0.98046523
-0.19215 0.36502999 -1.2729 -0.012903526 0.10393161 0.31216946 0.32926896
-0.18012001 0.36666 -1.2786 -0.017441485 0.76796764 -0.20568718 0.79522687
-0.17157 0.36570999 -1.2753 -0.039290611 0.74171758 -0.41668081 0.85165232
-0.16962001 0.36629999 -1.2774 -0.020818999 0.70398009 -0.4834511 0.85425198
-0.18419001 0.36629999 -1.2774 -0.026858769 0.13577911 0.39666545 0.42012003
-0.20136 0.36785999 -1.2828 0.1746114 -0.13037276 0.072222918 0.22956993
-0.17623 0.36783999 -1.2826999 -0.0072978307 0.49984896 -0.016783029 0.50018388
-0.19135 0.36228001 -1.2634 -0.024685342 -0.010794699 0.22553095 0.22713456
-0.17524 0.36370999 -1.2684 -0.08083576 0.86752117 -0.30093509 0.92178595
-0.16999 0.36794999 -1.2831 -0.026352456 0.54288203 -0.10411206 0.55340278
-0.17338 0.36456999 -1.2714 -0.060879007 0.80744851 -0.3606486 0.88642359
-0.16340999 0.3664 -1.2776999 -0.0038615614 0.67550528 -0.65400308 0.94023526
-0.13038 0.36816001 -1.2839 0.14340404 0.20401511 -0.081573874 0.26237601
-0.17603999 0.36701 -1.2799 -0.014578832 0.59086365 -0.072453767 0.59546787
-0.16351999 0.36695001 -1.2796 0.0082088159 0.62879384 -0.73861444 0.97005177
-0.18749 0.36319 -1.2665 -0.015340376 0.045496494 0.33739597 0.34079507
-0.18559 0.36379001 -1.2686 0.019176768 0.09661901 0.38310874 0.39556956
-0.19151001 0.36283001 -1.2653 -0.029713951 0.0095971823 0.27732533 0.27907771
-0.18938001 0.3626 -1.2645 -0.018017493 0.0087061822 0.28161705 0.28232709
-0.18324 0.36273 -1.2649 0.017865198 -0.0042254031 0.24898303 0.2496589
-0.1814 0.36359 -1.2679 0.019869339 0.052768767 0.3198123 0.32474488
-0.18954 0.36315 -1.2664 -0.027868509 0.029694587 0.32176608 0.32433289
-0.18732999 0.36263999 -1.2646 -0.00372619 0.0028150976 0.27091056 0.27095082
-0.18528999 0.36269 -1.2648 0.003344621 0.0025928617 0.2661218 0.26615545
-0.18337999 0.36328 -1.2668 0.018145787 0.014421046 0.25469965 0.25575212
-0.18375 0.36465001 -1.2716 -0.0070432909 0.1239242 0.37078673 0.391011
-0.16785 0.36770999 -1.2823 0.041937977 0.67208123 -0.56534481 0.87924212
-0.17351 0.36511999 -1.2733001 -0.048860606 0.78528333 -0.36760899 0.86844319
-0.12547 0.38446 -1.3407 -0.22321659 -0.071985304 -0.018652551 0.23527738
-0.18381999 0.36493 -1.2726001 0.0060395477 0.11814123 0.37920061 0.39722404
-0.12556 0.38556001 -1.3446 -0.19118521 -0.065759122 -0.018322356 0.20300679
-0.17151 0.36543 -1.2744 -0.045915395 0.74565601 -0.46311548 0.87896931
-0.16761 0.36660999 -1.2783999 0.016555099 0.55070871 -0.81089222 0.98035723
-0.18331 0.36300001 -1.2659 0.016914103 0.0029268265 0.24645969 0.24705675
-0.17428 0.36842 -1.2848001 -0.0059736338 0.61632484 -0.15048805 0.63445932
-0.17213 0.36818999 -1.284 0.0030084075 0.63283151 -0.19387412 0.66187
-0.19396999 0.36416 -1.2699 -0.05915428 0.089613259 0.36343974 0.37896991
-0.17963 0.36473 -1.2719001 0.030011728 0.118016 0.38405013 0.40289328
-0.17749999 0.36449999 -1.2711 -0.053825282 0.84019881 -0.3706044 0.91987979
-0.12587 0.38942 -1.358 0.7935586 -0.46237251 -0.15147263 0.9308424
-0.17364 0.36567 -1.2752 -0.043079421 0.77058572 -0.39703757 0.86792684
-0.18219 0.36662 -1.2785 -0.01293722 0.80198926 -0.24321257 0.83815658
-0.18626 0.36625999 -1.2772 -0.022852957 0.14677158 0.36554694 0.39457411
-0.18054 0.36831 -1.2844 -0.0013801889 0.66305345 -0.12717181 0.67514032
-0.19024999 0.36561999 -1.275 -0.0071623735 0.12565976 0.32377282 0.34737661
-0.18787 0.36456999 -1.2713 0.010364816 0.12378255 0.38572258 0.40523013
-0.20602 0.37577 -1.3104 -0.27498347 0.14832342 0.065247416 0.31917545
-0.19159 0.36309999 -1.2661999 -0.033932932 0.02556774 0.31123027 0.3141169
-0.17777 0.36559999 -1.2749 -0.032817218 0.83503419 -0.34808633 0.90527517
-0.17984 0.36556 -1.2747999 -0.034947433 0.83543909 -0.31980455 0.89524001
-0.20576 0.37494001 -1.3075 -0.42520609 0.42879564 0.20099053 0.6364457
-0.18726 0.36237001 -1.2637 0.0022164369 -0.0043365061 0.24538575 0.24543408
-0.18397 0.36548001 -1.2745 -0.0026713992 0.13886169 0.39307749 0.41689283
-0.17557 0.36509001 -1.2732 -0.043893784 0.81567019 -0.32793388 0.8802188
-0.20611 0.37604001 -1.3114001 -0.27350444 0.14561424 0.067858115 0.31719539
-0.16508 0.36443999 -1.2709 -0.032653119 0.73503721 -0.4897722 0.88386804
-0.18985 0.36425 -1.2702 -0.006820865 0.1006611 0.37699017 0.3902573
-0.16285001 0.36364001 -1.2681 -0.013625527 0.74602127 -0.33634451 0.81845039
-0.13043 0.36871001 -1.2858 0.12893322 0.22727461 -0.098577499 0.27927592
-0.17859 0.3689 -1.2864 -0.0049755941 0.6568194 -0.18257606 0.68174082
-0.17649999 0.36894 -1.2866 -0.00049646758 0.60750163 -0.15454036 0.62685019
-0.18841 0.36649001 -1.278 -0.031148948 0.15379426 0.34523678 0.37922469
-0.18634 0.36653 -1.2782 0.017641915 0.8394081 -0.31588218 0.89705002
-0.18248001 0.36772001 -1.2823 0.00018574018 0.72902209 -0.11675665 0.73831254
-0.1804 0.36776 -1.2825 -0.0041309972 0.64397085 -0.078223884 0.64871758
-0.20162 0.36868 -1.2857 0.20904168 -0.13562593 0.1553666 0.29365218
-0.16913 0.36409 -1.2697001 -0.039338179 0.7780242 -0.38985178 0.871122
-0.16346 0.36667001 -1.2787 0.0014874432 0.68703306 -0.61914706 0.9248566
-0.12565 0.38666001 -1.3484 -0.17837965 -0.089592457 -0.014591619 0.20014751
-0.1839 0.36520001 -1.2736 0.0021216844 0.13911161 0.38320482 0.40767938
-0.17396 0.36704999 -1.28 -0.014545793 0.68953693 -0.26044285 0.73722672
-0.17188001 0.36708999 -1.2801 -0.0027590794 0.69977844 -0.32854134 0.7730698
-0.16981 0.36712 -1.2802 0.0012797005 0.70181215 -0.43171722 0.82396704
-0.16755 0.36633 -1.2775 0.0052918438 0.6188876 -0.72579348 0.953848
-0.16553999 0.36664 -1.2786 0.018098339 0.6823504 -0.61471564 0.91858852
-0.12592 0.38997 -1.3599 0.75698066 -0.19996402 -0.077362575 0.78675938
-0.18756001 0.36346999 -1.2675 -4.4160988e-05 0.041749448 0.30942047 0.31222436
-0.20584001 0.37522 -1.3085001 -0.44658959 0.42737144 0.2090138 0.65251464
-0.20093 0.36647999 -1.278 0.1603896 -0.10274732 0.062995762 0.20062478
-0.18945999 0.36287001 -1.2654001 -0.021164803 0.01656574 0.30240506 0.30359709
-0.16968 0.36657 -1.2783 -0.016403481 0.7000739 -0.49344593 0.85665709
-0.18604 0.36543 -1.2744 -0.012591763 0.13318214 0.36401105 0.38781449
-0.18456 0.36768001 -1.2822 0.0074207243 0.72527272 -0.1082764 0.73334807
-0.18233 0.36717001 -1.2804 -0.0048516858 0.73130614 -0.086084098 0.73637128
-0.19312 0.36831999 -1.2844 0.0067668669 0.67588788 -0.076852292 0.68027675
-0.19047999 0.36645001 -1.2779 -0.0055248998 0.11498958 0.19960187 0.23042144
-0.20145001 0.36813 -1.2838 0.19038393 -0.12009555 0.093730539 0.24383271
-0.19438 0.36553001 -1.2747 0.026840329 0.089511454 0.19352663 0.21490757
-0.18978 0.36397001 -1.2693 -0.011022639 0.08496955 0.38681093 0.39618686
-0.17377 0.36622 -1.2771 -0.028861253 0.74584574 -0.32845944 0.81547803
-0.19422001 0.36498001 -1.2728 -0.017758895 0.1067946 0.29441488 0.31368867
-0.17409 0.36759999 -1.2819 -0.0039862003 0.67721492 -0.25442368 0.7234413
-0.16134 0.36643001 -1.2778 -0.030147992 0.59290379 -0.7854538 0.9845717
-0.18962 0.36342001 -1.2674 -0.016920421 0.056745887 0.35728607 0.36215979
-0.18026 0.36721 -1.2806 -0.018037688 0.72170997 -0.13214874 0.73393047
-0.18047 0.36803001 -1.2834001 -0.006923439 0.66802245 -0.13495019 0.68155223
-0.17845 0.36835 -1.2845 -0.010358133 0.59431243 -0.064293414 0.59786969
-0.18441001 0.36713001 -1.2803 -0.0052090436 0.79488635 -0.19021927 0.81734616
-0.18212 0.36634001 -1.2775 -0.022948867 0.83041286 -0.27906528 0.87635016
-0.17113 0.36377999 -1.2686 -0.047324579 0.8097142 -0.34704852 0.88222414
-0.16907001 0.36381999 -1.2687 -0.043341622 0.76498455 -0.36475486 0.84860235
-0.17783999 0.36587 -1.2759 -0.028905602 0.81199163 -0.33480662 0.87878406
-0.16128001 0.36614999 -1.2769001 -0.033118516 0.60261405 -0.76900613 0.97755355
-0.12842 0.36954999 -1.2887 0.088772207 0.1455806 -0.17121132 0.24163513
-0.18426 0.36658001 -1.2783 -0.032425981 0.14456609 0.41959962 0.44498837
-0.18649 0.36708 -1.2801 0.0031842459 0.80991817 -0.23014291 0.84198773
-0.17832001 0.3678 -1.2826 0.00026874617 0.58262742 -0.060451895 0.58575523
-0.18566 0.36406001 -1.2696 0.019764438 0.10139602 0.38256216 0.39626455
-0.18536 0.36296001 -1.2657 0.0099979928 0.015023053 0.30327427 0.30381069
-0.16548 0.36636001 -1.2776 0.01177465 0.70932686 -0.51688355 0.87775391
-0.18521 0.36241001 -1.2638 0.0084808366 -0.0048030317 0.22337458 0.22358711
-0.18133 0.36331999 -1.267 0.019501163 0.036733747 0.29114941 0.29410481
-0.17163 0.36599001 -1.2763 -0.030604031 0.73383397 -0.40017557 0.83641458
-0.12895 0.37505999 -1.3079 -0.50256532 0.39004236 0.089502186 0.64242947
-0.18359999 0.36410001 -1.2697001 0.021081652 0.086051971 0.37098771 0.38142005
-0.17997999 0.36611 -1.2767 -0.026450455 0.82739043 -0.27236801 0.87146938
-0.17175999 0.36654001 -1.2782 -0.018824544 0.70505774 -0.32957682 0.77851248
-0.1893 0.36232001 -1.2635 -0.010880898 -0.0080536604 0.23220304 0.23259731
-0.17388999 0.36677 -1.279 -0.018525071 0.69707429 -0.27260399 0.74871135
-0.18353 0.36383 -1.2688 0.0140652 0.063651979 0.33867413 0.34489065
-0.17544 0.36454001 -1.2711999 -0.055819899 0.81784725 -0.33328223 0.88491076
-0.16975001 0.36684999 -1.2793 -0.0032477798 0.66555989 -0.63714379 0.92137545
-0.12837 0.36899999 -1.2868 0.10024518 0.2002866 -0.15005879 0.269595
-0.20101 0.36675999 -1.279 0.16346067 -0.099115178 0.071375161 0.20405298
-0.19405 0.36443001 -1.2709 -0.039962128 0.093922019 0.34809393 0.3627502
-0.18764 0.36374 -1.2685 0.0062428787 0.082077086 0.37114942 0.38016775
-0.17207 0.36791 -1.283 -0.0062646503 0.6526311 -0.22831574 0.69144392
-0.16324 0.36557001 -1.2747999 -0.036044683 0.65722221 -0.68969268 0.95337099
-0.1797 0.36500999 -1.2729 -0.024429675 0.86245877 -0.29537144 0.91196287
-0.18855999 0.36704001 -1.28 0.0057480149 0.80910361 -0.50494027 0.95375383
-0.17144001 0.36515999 -1.2733999 -0.052640975 0.75241089 -0.41929469 0.86296076
-0.1672 0.36467999 -1.2717 -0.027867991 0.72015876 -0.42849559 0.83845919
-0.19199 0.36447999 -1.271 -0.031085085 0.097824603 0.34263736 0.35768184
-0.18155 0.36414 -1.2699 0.01666056 0.094137102 0.37507665 0.3870683
-0.19182999 0.36392999 -1.2691 -0.039075963 0.091402262 0.38360265 0.39627302
-0.12553 0.38529 -1.3436 -0.20935071 -0.070810825 -0.019603632 0.22186977
-0.18895 0.36840999 -1.2848001 0.011977237 0.70602703 -0.14185387 0.72023618
-0.18686 0.36846 -1.2849 -0.01151647 0.72545058 -0.17405444 0.74612743
-0.1904 0.36616999 -1.2769001 -0.0049107671 0.12403473 0.26138842 0.28936592
-0.18005 0.36638001 -1.2776999 -0.022432894 0.79983068 -0.2804758 0.84787911
-0.20110001 0.36702999 -1.2799 0.16235134 -0.10602918 0.063913494 0.20416924
-0.18595999 0.36515999 -1.2733999 -0.0054092756 0.13347176 0.38664693 0.40907189
-0.17182 0.36680999 -1.2792 -0.010190242 0.70322472 -0.34609476 0.78384334
-0.18611 0.36570999 -1.2753 -0.018674016 0.13704929 0.34331048 0.37012607
-0.17976999 0.36528 -1.2738 -0.029680684 0.85266864 -0.31842911 0.91067111
-0.17956001 0.36445999 -1.271 0.019968126 0.118534 0.36320275 0.38257715
-0.12605999 0.39162001 -1.3657 0.78861892 -0.46756297 -0.15114525 0.92918235
-0.19372 0.36333001 -1.267 -0.04561457 0.022019655 0.29120061 0.29557291
-0.1763 0.36811 -1.2837 0.0052065616 0.58099073 -0.10013962 0.5895806
-0.1824 0.36743999 -1.2814 -0.0038297484 0.72069168 -0.084223747 0.7256065
-0.17643 0.36866 -1.2855999 -0.0061247218 0.57368684 -0.10277116 0.58285165
-0.16369 0.36776999 -1.2825 0.034886409 0.55119962 -0.81914049 0.98794192
-0.1943 0.36526 -1.2737 -0.01816377 0.10504693 0.28973123 0.30872151
-0.16537 0.36581001 -1.2757 -0.0039349161 0.70011568 -0.57644737 0.90690076
-0.12892 0.37479001 -1.307 -0.63759494 0.39238691 0.092812046 0.75439304
-0.16123 0.36588001 -1.2759 -0.038445145 0.59516609 -0.78206086 0.9835242
-0.19628 0.36493 -1.2726001 -0.029776126 0.103717 0.28381595 0.30363682
-0.17584001 0.36618999 -1.277 -0.027038606 0.77568519 -0.30171284 0.83273602
-0.16502 0.36416 -1.2699 -0.034520879 0.74241251 -0.42223656 0.85478163
-0.1256 0.38611001 -1.3465 -0.20627651 -0.091759384 -0.015046977 0.22626576
-0.17791 0.36614999 -1.2769001 -0.027428532 0.80161005 -0.30182999 0.85699028
-0.16743 0.36578 -1.2756 -0.010384981 0.70259452 -0.47314796 0.84712213
-0.19032 0.36590001 -1.276 -0.0085702762 0.12095812 0.3048445 0.32807696
-0.18573999 0.36432999 -1.2704999 0.0061969976 0.13585046 0.40385944 0.42614105
-0.16731 0.36522999 -1.2737 -0.02598168 0.70290232 -0.48110259 0.85217744
-0.19287001 0.36750001 -1.2816 -0.17367622 -0.46139055 0.82973909 0.96514851
-0.19103 0.36837 -1.2846 0.033081248 0.70861471 -0.1513148 0.72534496
-0.18162 0.36442 -1.2708 0.013260867 0.10005715 0.37351227 0.38690916
-0.17169 0.36625999 -1.2772 -0.027440736 0.72322398 -0.39989758 0.82687604
-0.16513 0.36471 -1.2718 -0.030403547 0.72963065 -0.52272308 0.89806718
-0.18169001 0.36469001 -1.2718 0.0083926208 0.10651276 0.36449927 0.37983567
-0.12887 0.37423 -1.3051 -0.035727292 -0.22311527 -0.087612316 0.24234846
-0.18640999 0.36680999 -1.2792 0.0051340377 0.83035427 -0.27971157 0.87621522
-0.18019 0.36693001 -1.2796 -0.019899232 0.75553262 -0.19967544 0.78172618
-0.17838 0.36807001 -1.2836 -0.0029446809 0.55076551 -0.046635598 0.55274427
-0.17636999 0.36838999 -1.2847 -0.0037411945 0.62817848 -0.15481931 0.64698625
-0.16956 0.36601999 -1.2764 -0.023069873 0.71869707 -0.41502619 0.83024365
-0.16317999 0.3653 -1.2739 -0.050662782 0.59800446 -0.76932442 0.97572339
-0.17811 0.36697 -1.2797 -0.006380572 0.62336284 -0.064609617 0.62673467
-0.18663999 0.36763 -1.2819999 -0.0057183504 0.79119861 -0.19679372 0.8153255
-0.17736 0.36395001 -1.2692 0.010579104 0.12246239 0.34955692 0.3705388
-0.16329999 0.36585 -1.2758 -0.023809902 0.67158741 -0.65050018 0.93527913
-0.19238999 0.36585 -1.2758 0.0088007152 0.10731056 0.21643959 0.24174182
-0.18412 0.36603001 -1.2764 -0.013821963 0.1285421 0.38309848 0.40432483
-0.17402001 0.36732 -1.281 -0.017135212 0.68603253 -0.27191675 0.73815507
-0.17757 0.36477 -1.2721 -0.035964929 0.84984577 -0.32857433 0.91186202
-0.19143 0.36254999 -1.2643 -0.021610256 -0.0013032258 0.25484255 0.25576049
-0.17195 0.36736 -1.2811 -0.007073754 0.67375588 -0.28379723 0.73112094
-0.16749001 0.36605 -1.2765 -0.0083655054 0.70004064 -0.46332195 0.83952016
-0.1881 0.36539 -1.2742 -0.011182627 0.12519825 0.36124215 0.38248602
-0.16737001 0.3655 -1.2746 -0.018485246 0.70323229 -0.45939183 0.8401894
-0.12831999 0.36844999 -1.2849 0.11437163 0.21170834 -0.11884056 0.26837355
-0.20171 0.36895001 -1.2866 0.22000732 -0.15941042 0.17837396 0.32501104
-0.18780001 0.36429 -1.2704 0.0091210986 0.10990673 0.37564898 0.3915033
-0.17763001 0.36504999 -1.273 -0.038324732 0.83848262 -0.34459618 0.90734142
-0.13032 0.36761001 -1.2819 0.12239467 0.15799735 -0.041563004 0.20413502
-0.16987 0.36739999 -1.2812001 0.011146597 0.69464672 -0.43456283 0.819453
-0.16993 0.36767 -1.2822 -0.016884992 0.61930275 -0.19230163 0.64869165
-0.18818 0.36567 -1.2752 -0.021537125 0.13697183 0.35675561 0.38275278
-0.17597 0.36673999 -1.2789 -0.022632899 0.74255669 -0.2492552 0.78360122
-0.16726001 0.36495 -1.2727 -0.027437016 0.7086401 -0.48449162 0.8588689
-0.19413 0.36471 -1.2718 -0.034193374 0.094896287 0.3150444 0.33079824
-0.18970001 0.3637 -1.2683001 -0.013443332 0.077536255 0.38036409 0.38841915
-0.18550999 0.36351001 -1.2677 0.012589914 0.056020439 0.32485515 0.32989037
-0.1761 0.36728999 -1.2808 -0.014476633 0.57111275 -0.061977863 0.57464826
-0.16926 0.36464 -1.2716 -0.043716498 0.73630327 -0.40351331 0.84075952
-0.16519 0.36499 -1.2728 -0.033263743 0.70700872 -0.60554338 0.93147767
-0.16335 0.36612001 -1.2768 -0.010321077 0.66510415 -0.66023815 0.93722165
-0.19167 0.36338001 -1.2672 -0.036496438 0.043516606 0.33797508 0.34271395
-0.18589 0.36488 -1.2724 0.002370412 0.1439347 0.40313509 0.42806625
-0.17817999 0.36725 -1.2807 -0.0082139671 0.62972188 -0.081844628 0.6350714
-0.1656 0.36691001 -1.2795 0.031573601 0.55390513 -0.81445134 0.98546374
-0.19191 0.3642 -1.2701 -0.039472029 0.077361822 0.34831226 0.35897675
-0.18826 0.36594 -1.2761 -0.018315701 0.13657463 0.3582904 0.38387513
-0.18671 0.36791 -1.283 0.010282518 0.75640655 -0.1787858 0.77731651
-0.18463001 0.36794999 -1.2831 -0.0068057291 0.72602391 -0.13853326 0.73915386
-0.19087 0.36781999 -1.2826999 -0.054367818 0.14616197 0.52191138 0.54471153
-0.18878999 0.36785999 -1.2828 0.0012479946 0.79906768 -0.23793346 0.83374035
-0.12558 0.38584 -1.3455 -0.2253989 -0.098627031 -0.017002307 0.24661921
-0.18772 0.36401999 -1.2694 0.0056132698 0.093112677 0.38340357 0.39458811
-0.12848 0.37009999 -1.2905999 0.067558348 0.093246534 -0.17044578 0.20569593
-0.17577 0.36590999 -1.276 -0.022997854 0.79122216 -0.28457946 0.84115803
-0.17383 0.36649999 -1.2781 -0.024147911 0.71067673 -0.28953543 0.76777291
-0.18147001 0.36386999 -1.2689 0.0161696 0.076528668 0.35300636 0.36156821
-0.17949 0.36418 -1.27 0.019982982 0.1103304 0.37267461 0.38917667
-0.17343999 0.36485001 -1.2723 -0.052165531 0.79170227 -0.34936091 0.86692953
-0.17138 0.36488 -1.2724 -0.049094215 0.75612569 -0.38221529 0.84866065
-0.16932 0.36491999 -1.2726001 -0.043739956 0.72918022 -0.42184147 0.84354442
-0.18581 0.36460999 -1.2715 -0.0014094791 0.84347284 -0.30208412 0.89593703
