# .PCD v0.7 - Point Cloud Data file format
VERSION 0.7
FIELDS x y z normal_x normal_y normal_z curvature
SIZE 4 4 4 4 4 4 4
TYPE F F F F F F F
COUNT 1 1 1 1 1 1 1
WIDTH 609
HEIGHT 1
VIEWPOINT 0 0 0 1 0 0 0
POINTS 609
DATA ascii
-0.17660999 -0.68620998 -1.1885999 0.0012431795 0.034212857 -0.20744702 0.21025302
-0.1701 -0.68590999 -1.1881 -0.0077305716 0.013970464 -0.28017864 0.28063321
-0.16813 -0.68747002 -1.1908 -0.0045987172 0.03169471 -0.22795767 0.23019643
-0.16581 -0.68602997 -1.1883 -0.007573674 0.020844698 -0.24782431 0.2488147
-0.15693 -0.68326002 -1.1835001 0.0018026037 -0.017324001 -0.27070814 0.27126789
-0.15488 -0.68431002 -1.1854 0.001286949 0.011955708 -0.21699387 0.21732679
-0.11633 -0.68492001 -1.1864001 -0.012086652 -0.77040792 0.20605585 0.79757971
-0.11418 -0.68493998 -1.1864001 -0.0099508818 0.0088301897 -0.33874574 0.33900687
-0.11206 -0.68594998 -1.1882 -0.0039406242 0.016826212 -0.32187247 0.32233605
-0.10994 -0.68695998 -1.1899 -0.0009293193 0.041798502 -0.2658394 0.26910698
-0.1078 -0.68747002 -1.1908 0.003442883 0.038854331 -0.28235629 0.28503788
-0.10562 -0.68598002 -1.1882 0.0050946441 0.0086093545 -0.36067021 0.36080891
-0.10133 -0.68649 -1.1891 0.0013965627 0.032805711 -0.26249027 0.26453602
-0.097038001 -0.68599999 -1.1883 -0.005229664 0.018615633 -0.34896129 0.3494966
-0.094890997 -0.68598998 -1.1883 -0.0010031513 0.028146744 -0.26327851 0.2647807
-0.092744 -0.68598998 -1.1883 0.0030001595 0.019039989 -0.26333269 0.26403719
-0.090586998 -0.68699002 -1.1900001 0.00054356176 0.028960198 -0.22641243 0.2282577
-0.079809003 -0.68794 -1.1916 -0.0092346082 0.054873943 -0.21504478 0.22212763
-0.077734001 -0.68541998 -1.1873 -0.0086136973 0.030028194 -0.26125008 0.26311117
-0.075589001 -0.68540001 -1.1872 -0.0071699843 0.027235806 -0.20242056 0.20437045
-0.073482998 -0.68437999 -1.1855 -0.0057853134 0.015079767 -0.38853693 0.3888725
-0.071278997 -0.68585998 -1.188 0.0014977236 0.03701511 -0.28227773 0.28469822
-0.069155 -0.68533999 -1.1871001 0.0069381529 0.033510029 -0.28164631 0.28371766
-0.060458999 -0.68721998 -1.1904 0.001287327 0.03432855 -0.21638313 0.21909305
-0.058309 -0.68719 -1.1903 -0.0016542918 0.035381794 -0.24634397 0.24887741
-0.054111 -0.68562001 -1.1876 -0.005011091 0.033275634 -0.33583471 0.3375164
-0.051966 -0.68558002 -1.1876 0.0062987348 0.0097699165 -0.44175833 0.44191125
-0.049821001 -0.68554002 -1.1875 -0.00014632102 0.044061989 -0.35582137 0.35853913
-0.045531001 -0.68545997 -1.1873 0.003505175 0.028726876 -0.23365979 0.23544514
-0.023913 -0.68641001 -1.189 -0.0059532719 0.019480944 -0.20022961 0.20126313
-0.021826001 -0.68585002 -1.188 -0.0074490285 0.020200491 -0.2201255 0.22117591
-0.015521 -0.68465 -1.1859 -0.003193039 -0.052282542 -0.41944343 0.42270139
-0.013243 -0.68557 -1.1875 -0.0010765966 0.01689446 -0.29667854 0.29716113
-0.011028 -0.68599999 -1.1883 0.0075261849 0.02306366 -0.270913 0.27199712
-0.0067352001 -0.68584001 -1.188 0.0097315516 0.037521601 -0.23237254 0.23558347
-0.0022132001 -0.68717998 -1.1903 -0.0045494321 0.043532312 -0.26128444 0.26492512
0.030219 -0.68672001 -1.1895 -0.0044107945 0.062654585 -0.21109211 0.22023834
0.039032999 -0.68725002 -1.1904 0.0027290143 0.022134155 -0.21720514 0.21834706
0.041184001 -0.68712997 -1.1902 0.001146646 0.020841599 -0.2565949 0.25744244
0.067225002 -0.68654001 -1.1892 0.0093192821 0.045599669 -0.20401032 0.20925198
0.073942997 -0.68709999 -1.1902 -0.0027562887 -0.0043617785 -0.41571826 0.41575029
0.075953998 -0.68645 -1.1891 -0.0056887888 0.01685378 -0.33838314 0.33885035
0.078383997 -0.68729001 -1.1905 -0.0089174286 0.03269282 -0.33196676 0.33369187
0.089134 -0.68650001 -1.1891 0.0097554373 0.013464063 -0.28000683 0.28050002
0.10066 -0.68813002 -1.192 -0.0059551257 0.052642643 -0.20128849 0.20814362
0.11357 -0.68706 -1.1901 0.007305413 0.036990136 -0.29647693 0.29886487
0.11623 -0.68835998 -1.1924 0.0089322971 0.053596914 -0.26362541 0.26916683
0.13167 -0.68799001 -1.1917 -0.0049523124 0.045793146 -0.20872715 0.21374883
0.13382 -0.68778998 -1.1914001 0.0005119259 0.046204835 -0.19819821 0.20351334
0.14692 -0.68703997 -1.1901 -0.0039139581 0.085802346 -0.24564943 0.2602326
0.14887001 -0.68633997 -1.1889 -0.0061549563 0.078522205 -0.28096035 0.29179162
0.15102001 -0.68611997 -1.1885 -0.006375459 0.091634214 -0.30700144 0.32044867
0.15572 -0.68665999 -1.1894 -0.0032432885 0.066654235 -0.24895827 0.25774702
0.15807 -0.68693 -1.1899 -0.00043742219 0.06644243 -0.3418639 0.348261
0.16554999 -0.68870002 -1.193 -0.0087357033 0.049256831 -0.27616823 0.28066251
0.19013 -0.68800998 -1.1918 -0.012413063 0.033270955 -0.22128718 0.2241184
0.20183 -0.68867999 -1.1928999 0.0025810087 0.052087218 -0.23801769 0.24366403
0.20398 -0.68842 -1.1925 -0.0016121725 0.054806203 -0.19875854 0.20618263
0.20637999 -0.68864 -1.1928999 -0.0024198713 0.057773322 -0.20742558 0.21533458
0.20805 -0.68741 -1.1907001 -0.0024162489 0.034362167 -0.21819323 0.22089563
0.20996 -0.68664998 -1.1894 -0.0066109975 0.03529653 -0.21650618 0.21946406
0.22916999 -0.68831998 -1.1923 -0.017381292 0.053189486 -0.2333912 0.2400056
0.23106 -0.68755001 -1.191 -0.01634863 0.044337541 -0.28453669 0.28843409
0.24234 -0.68706 -1.1901 0.0015137279 0.028174192 -0.25978005 0.26130778
0.25604999 -0.68668997 -1.1895 -0.014347952 0.015143991 -0.31710669 0.31779218
0.25959 -0.68878001 -1.1931 -0.0071232957 0.064329594 -0.26155949 0.26944831
0.26119 -0.68751001 -1.1909 0.0037306976 0.066765696 -0.32372171 0.33055609
0.26390001 -0.68816 -1.192 0.013525264 0.070979536 -0.22412451 0.23548423
0.26877001 -0.68848002 -1.1926 0.006568715 0.051139772 -0.25448716 0.25965771
0.27092999 -0.68816 -1.192 -0.0071433107 0.055562228 -0.26303792 0.26893705
0.28011999 -0.68782002 -1.1914001 0.0080032619 0.12960374 -0.35177988 0.37498036
0.28227001 -0.68748999 -1.1909 0.0080592511 0.12520754 -0.39078298 0.41043052
0.28472 -0.68763 -1.1911 0.0072042728 0.080416501 -0.32828286 0.33806559
0.28687 -0.68730003 -1.1905 0.0034392569 0.06180945 -0.23645651 0.24442568
0.29482999 -0.68866998 -1.1928999 -0.0016791038 0.028120369 -0.21169977 0.21356584
0.30098999 -0.68716002 -1.1903 0.00098635117 0.029996067 -0.21058291 0.21271084
0.31825 -0.68800002 -1.1917 -0.0066509959 0.062885612 -0.20720679 0.21664138
0.33030999 -0.68804997 -1.1918 0.0067576347 0.025376201 -0.32561177 0.32666901
0.33213001 -0.68721002 -1.1904 0.0053781234 0.0099620223 -0.38936552 0.38953009
0.33493999 -0.68778002 -1.1914001 -0.0032445879 0.045877844 -0.33497712 0.33811975
0.33809 -0.68880999 -1.1932 -0.0026241816 0.058512032 -0.21197326 0.21991637
0.35168999 -0.68743998 -1.1908 0.0012248694 0.069056451 -0.22977258 0.2399286
0.35953 -0.68813002 -1.192 -0.015207201 0.056645423 -0.25898275 0.26554102
0.36168 -0.68773001 -1.1913 -0.0070594926 0.04798609 -0.21349901 0.21893911
0.36774001 -0.68927002 -1.1939 0.00087083224 0.051857471 -0.21850811 0.22457905
0.37996 -0.68908 -1.1936001 -0.0089908447 0.026040077 -0.24472034 0.24626605
0.38609001 -0.69058001 -1.1962 0.01972045 0.052860618 -0.22129972 0.22837843
0.39004001 -0.68927002 -1.1939 0.010335093 0.050955564 -0.24706256 0.25247413
0.39183 -0.68836999 -1.1924 -0.00026152842 0.055059344 -0.29856253 0.30359706
0.39725 -0.68891001 -1.1933 -0.0049468847 0.054179996 -0.2875312 0.29263312
0.39904001 -0.68800998 -1.1918 0.0038795539 0.062859833 -0.30567983 0.31210026
0.40081 -0.68712002 -1.1902 0.011406966 0.034885943 -0.26271462 0.26526612
0.41321999 -0.68998998 -1.1952 0.0099480711 0.035784751 -0.2058803 0.20920375
0.41538 -0.68954003 -1.1944 0.0066138501 0.040985376 -0.21837816 0.22228937
0.42791 -0.68636 -1.1889 -0.0068105934 0.016749084 -0.41214114 0.41253754
0.43123999 -0.68728 -1.1905 0.00090999954 0.044433773 -0.30461055 0.30783564
0.43458 -0.6882 -1.1921 0.00054546061 0.041930944 -0.21244174 0.21654098
0.47384 -0.68875003 -1.193 -0.0092046307 0.020936072 -0.23708154 0.23818207
0.50572002 -0.68892998 -1.1933 0.0058213263 0.056156546 -0.20823915 0.21575679
0.50700003 -0.6875 -1.1909 0.0029056445 0.046717465 -0.27491602 0.27887234
0.51611 -0.6886 -1.1928 0.001935537 0.021380335 -0.23526618 0.23624361
0.51871997 -0.68851 -1.1926 -0.0084154373 0.012931108 -0.31724596 0.3176209
0.52392 -0.68831998 -1.1923 -0.027346294 0.036094606 -0.28140974 0.28502998
0.56022 -0.68906999 -1.1936001 0.020811396 0.039158046 -0.20217732 0.2069834
0.56285 -0.68893999 -1.1934 0.0099847447 0.038277 -0.28146809 0.28423426
0.56906003 -0.68954003 -1.1944 -0.0090520103 0.04814598 -0.22500503 0.23027644
0.57169002 -0.68940002 -1.1942 -0.0037994357 0.03806144 -0.25847822 0.26129314
0.58007997 -0.68939 -1.1942 0.014165169 0.04982391 -0.1959372 0.20266834
0.62011999 -0.68958998 -1.1945 0.0067853807 0.03202942 -0.24457854 0.24676019
0.63979 -0.68902999 -1.1935 0.0064864941 -0.38480654 0.31302238 0.49608585
0.65151 -0.68901002 -1.1935 -0.0018352553 -0.12423062 0.18495393 0.22281061
0.66110998 -0.68959999 -1.1945 0.004505116 0.032323092 -0.22292289 0.22529912
0.67184001 -0.68862998 -1.1928 0.0013644747 0.052964896 -0.20936343 0.21596341
0.67611003 -0.68966001 -1.1946 -0.0010401515 0.054768771 -0.21023548 0.21725482
0.68901998 -0.69032001 -1.1957999 -0.014044199 0.042947501 -0.2020267 0.20701815
0.69981003 -0.68923998 -1.1939 -0.004957011 0.025529414 -0.21799877 0.2195445
0.70251 -0.68897003 -1.1934 0.0043589612 0.04056862 -0.2490468 0.25236702
0.70684999 -0.68994999 -1.1950999 0.0083824079 0.042584777 -0.2159359 0.2202545
0.71496999 -0.68909001 -1.1936001 -0.0016799201 0.033588916 -0.28157747 0.28357875
-0.92733997 -0.68418002 -1.1851 0.034337964 0.067649156 -0.22361475 0.23613356
-0.92352998 -0.68365997 -1.1842 0.0011990885 0.052449852 -0.23995192 0.24562034
-0.90507001 -0.6814 -1.1803 0.019172747 -0.031398565 -0.33350718 0.33553019
-0.88015002 -0.67164999 -1.1634001 0.17236821 0.015512973 -0.13862041 0.22173649
-0.86716002 -0.66394001 -1.15 0.11418059 0.16883774 -0.17511347 0.26871568
-0.87452 -0.68356001 -1.184 -0.059571829 -0.097068042 0.19039267 0.22185665
-0.86650002 -0.68431997 -1.1853 -0.011335997 0.061433166 -0.20998469 0.21908014
-0.86277002 -0.68371999 -1.1842999 -0.0053136414 -0.31237042 0.27818772 0.41832036
-0.81805003 -0.67335999 -1.1664 0.7572121 -0.59354544 -0.23985589 0.99156302
-0.80417001 -0.66411 -1.1503 0.069239452 0.12767696 -0.21304911 0.2578477
-0.80005002 -0.66301 -1.1483999 0.11042225 0.057972848 -0.22481139 0.25708771
-0.79540998 -0.6638 -1.1497999 -0.024508946 -0.10241228 0.45887446 0.47080225
-0.78420001 -0.65898001 -1.1414 0.17286579 -0.02409026 -0.1648528 0.240082
-0.77762002 -0.65569001 -1.1357 -0.2330215 0.098270893 0.013373315 0.25324896
-0.77758998 -0.65801001 -1.1398 0.22199523 -0.0094770193 -0.1753365 0.2830452
-0.77604002 -0.65903002 -1.1415 0.21702027 0.018519402 -0.18561533 0.28617096
-0.77648002 -0.66179001 -1.1463 0.19237472 0.023117244 -0.13653493 0.23703212
-0.77727997 -0.67708999 -1.1727999 0.064914778 -0.8478744 0.47106951 0.97211701
-0.77759999 -0.67987001 -1.1776 -0.010407954 -0.059937656 -0.19737692 0.20653932
-0.77644998 -0.68133003 -1.1802 0.0052382275 -0.067246258 -0.24807404 0.2570802
-0.77432001 -0.68191999 -1.1812 0.080410421 -0.85572207 0.29593959 0.90901399
-0.77315003 -0.68339002 -1.1837 -0.15842146 -0.062499136 -0.32118469 0.36354244
-0.76716 -0.68046999 -1.1787 0.067832842 -0.8693859 0.35942701 0.94319719
-0.73730999 -0.68336999 -1.1837 -0.026092209 0.034991503 -0.1959874 0.20078912
-0.73119003 -0.68270999 -1.1825 -0.024514519 -0.00060495734 -0.41036525 0.41109729
-0.72860003 -0.68282002 -1.1827 0.013315544 0.031888396 -0.22210595 0.22477818
-0.71135998 -0.68439001 -1.1855 -0.0010696398 0.05691582 -0.24771433 0.25417107
-0.70877999 -0.68448001 -1.1856 -0.0066977204 0.067631304 -0.28813061 0.29603735
-0.70396 -0.68233001 -1.1819 0.015838735 0.053868979 -0.25964952 0.26565129
-0.70183003 -0.68286002 -1.1828001 0.0062968265 0.064023048 -0.28865764 0.29573947
-0.69968998 -0.68338001 -1.1837 0.0064777248 0.062608451 -0.32093078 0.32704487
-0.69624001 -0.68256003 -1.1823 0.0050149788 0.038764775 -0.29797998 0.30053276
-0.68638003 -0.68329 -1.1835001 0.0089350352 0.023961008 -0.34984803 0.35078141
-0.67995 -0.68204999 -1.1813999 0.019945182 0.047148138 -0.30287698 0.30717295
-0.67825001 -0.68300998 -1.1831 0.0051344773 0.032729983 -0.27869493 0.28065723
-0.66842002 -0.68366998 -1.1842 0.053107947 -0.29684871 0.27929074 0.41102666
-0.66627997 -0.68417001 -1.1851 0.072634295 -0.14884552 0.1842517 0.2477487
-0.66158003 -0.68470001 -1.186 0.026722301 0.043610543 -0.22321941 0.22900407
-0.65818 -0.68383002 -1.1845 0.0049754176 0.045525044 -0.24138874 0.24569455
-0.65011001 -0.68347001 -1.1839 -0.0087640956 0.031930923 -0.28271848 0.28465089
-0.64756 -0.68348998 -1.1839 -0.011587216 0.059444159 -0.23167983 0.23946485
-0.64543003 -0.68396997 -1.1847 -0.0019281032 0.068038106 -0.26340279 0.27205503
-0.64033002 -0.68401003 -1.1848 0.0075825821 0.021297961 -0.27929455 0.28020805
-0.63270998 -0.68405002 -1.1849 0.0085671293 0.036577582 -0.19752128 0.20106211
-0.63055998 -0.68452001 -1.1857001 -0.0035827358 0.032993406 -0.29511598 0.29697618
-0.62842 -0.68497998 -1.1865 -0.007197266 0.045134068 -0.27542186 0.27918828
-0.61923999 -0.68314999 -1.1833 0.01574816 0.032282144 -0.33770835 0.33961311
-0.61593002 -0.68221998 -1.1817 0.019732313 0.033250481 -0.28631681 0.28891569
-0.61378998 -0.68267 -1.1825 0.014630543 0.041445702 -0.20833328 0.21291913
-0.60913998 -0.68311 -1.1832 0.0088076601 0.042266488 -0.25426412 0.25790361
-0.60661 -0.68308997 -1.1832 0.0053802095 0.052452236 -0.30069181 0.30527979
-0.60448003 -0.68353999 -1.184 -0.01446739 0.059405565 -0.20818383 0.21697657
-0.59617001 -0.68254 -1.1822 0.018048994 0.0093722045 -0.28290784 0.28363788
-0.59403002 -0.68298 -1.183 0.026221368 0.019215137 -0.26768339 0.2696501
-0.59152001 -0.68295002 -1.1829 0.023881007 0.020364642 -0.26452374 0.26637912
-0.58649999 -0.68287998 -1.1828001 0.0031442146 0.030784816 -0.24163321 0.24360664
-0.58436 -0.68330002 -1.1835999 -0.0015327763 0.035190821 -0.228156 0.23085906
-0.57862002 -0.68229002 -1.1818 -0.00069921743 0.028228015 -0.31572568 0.31698585
-0.57685 -0.68317002 -1.1833 0.0080064218 0.03684628 -0.29644954 0.2988379
-0.57507998 -0.68405998 -1.1849 0.0020562345 0.043893993 -0.19955404 0.20433484
-0.57257003 -0.68401003 -1.1848 0.010388533 0.035091251 -0.19983946 0.2031628
-0.56898999 -0.68256003 -1.1823 0.013494301 0.022392392 -0.27695766 0.27818888
-0.56721997 -0.68343002 -1.1838 0.011650339 0.043376356 -0.19604164 0.20112078
-0.56436002 -0.68291003 -1.1829 -0.00078463228 0.036118627 -0.20077568 0.20400012
-0.53346002 -0.68381 -1.1845 -0.0047036675 0.041048825 -0.23355536 0.23718186
-0.52177 -0.68427998 -1.1853 -0.00093748153 0.023869216 -0.21552199 0.21684176
-0.51832002 -0.68276 -1.1826 -0.0037317025 0.0010609031 -0.2935279 0.29355353
-0.51554 -0.68217999 -1.1816 -0.0076325019 -0.010593832 -0.41129136 0.41149858
-0.51437002 -0.68396002 -1.1847 0.0075789234 0.027112812 -0.32453045 0.32574922
-0.51191002 -0.68384999 -1.1845 0.015016867 0.050595403 -0.27403396 0.2790699
-0.50668001 -0.68314999 -1.1833 -0.014472144 0.048851341 -0.26966533 0.2744363
-0.50454003 -0.68351001 -1.1839 -0.013604502 0.052899867 -0.21564656 0.22245656
-0.50115001 -0.68195999 -1.1812 0.0026290668 0.060877532 -0.25991571 0.26696286
-0.49107999 -0.68465 -1.1859 0.017377047 0.05441615 -0.2367624 0.24355598
-0.48894 -0.685 -1.1865 0.011060368 0.068267077 -0.22242972 0.23293284
-0.48100999 -0.68362999 -1.1841 -0.004711003 -0.031721979 -0.53265238 0.53361696
-0.47672999 -0.68430001 -1.1853 -0.018001229 0.057739437 -0.24221954 0.24965616
-0.46884999 -0.68289 -1.1829 -0.014887644 0.053266525 -0.25142959 0.25744087
-0.46671 -0.68321002 -1.1834 0.0084692743 0.040819585 -0.34674013 0.34923729
-0.46456999 -0.68352997 -1.184 0.0051482571 0.041264504 -0.36135459 0.36373946
-0.46215001 -0.68338001 -1.1837 0.0018390277 0.027660191 -0.38066262 0.38167068
-0.46057999 -0.68465 -1.1859 0.010511957 0.03345421 -0.31352884 0.31548378
-0.44633999 -0.68412 -1.1849999 -0.0025086049 0.017603308 -0.2355887 0.23625876
-0.43722999 -0.68436003 -1.1854 0.02611766 0.026079774 -0.1989457 0.2023405
-0.42282999 -0.68321002 -1.1834 -0.0090673985 0.062399507 -0.19728249 0.20711422
-0.42069 -0.68348998 -1.1839 -0.011983855 0.057066768 -0.2885766 0.29440904
-0.40594 -0.68590999 -1.1881 0.0079295086 0.038256228 -0.21837801 0.22184537
-0.40259001 -0.68374997 -1.1842999 0.0030819622 0.041560173 -0.3237789 0.32644987
-0.40068999 -0.68449998 -1.1856 -0.0078159906 0.036222309 -0.38515458 0.38693306
-0.3964 -0.68502998 -1.1866 -0.016783787 0.042816013 -0.21136604 0.21631114
-0.39401999 -0.68480003 -1.1862 -0.0093488386 0.034883261 -0.21256103 0.21560712
-0.39210999 -0.68554997 -1.1875 -0.0061428617 0.03777492 -0.24109961 0.24411821
-0.37316 -0.68364 -1.1842 -0.0046805707 0.035876304 -0.21097963 0.21405938
-0.37081 -0.68339998 -1.1837 -0.0053957058 0.016768098 -0.30318472 0.30369601
-0.36844999 -0.68314999 -1.1833 -0.0048411549 0.014137954 -0.34475577 0.34507951
-0.36717999 -0.68533999 -1.1871001 0.0034287097 0.042102337 -0.20815663 0.2123995
-0.36438999 -0.68409997 -1.1849999 -9.3000941e-05 0.024596184 -0.24512482 0.24635576
-0.3599 -0.68408 -1.1849 -0.0035432326 0.030209392 -0.21760681 0.21972229
-0.35755 -0.68382001 -1.1845 0.0029941658 0.026854545 -0.22169712 0.22333774
-0.35499999 -0.68307 -1.1832 -0.01246444 0.064109772 -0.2435361 0.25214133
-0.35133001 -0.68497998 -1.1865 0.013334123 0.067126393 -0.23383059 0.24364009
-0.34898999 -0.68471003 -1.186 0.019130759 0.062379688 -0.30546403 0.31235474
-0.34645 -0.68395001 -1.1847 0.0079222154 0.025819331 -0.42698872 0.42784199
-0.34450001 -0.68466002 -1.1859 -0.0022443105 0.022623062 -0.40279177 0.40343285
-0.34255999 -0.68536001 -1.1871001 -0.0090361685 0.04727599 -0.31407732 0.31774396
-0.33769 -0.68431997 -1.1853 -0.015647924 0.033951312 -0.21948195 0.22264293
-0.33555001 -0.68453002 -1.1857001 -0.012972529 0.0034988225 -0.34551263 0.34577379
-0.33340999 -0.68472999 -1.186 -0.00021842029 0.026018888 -0.30080667 0.30192992
-0.33126 -0.68493998 -1.1864001 0.0070907334 0.0099266171 -0.34939542 0.34960833
-0.32875001 -0.68415999 -1.1851 -0.0013495386 -0.052427769 -0.50411773 0.50683838
-0.32624 -0.68338001 -1.1837 -0.0032441209 0.00061491132 -0.44273779 0.4427501
-0.32429001 -0.68406999 -1.1849 -0.0063166698 -0.006316781 -0.41213402 0.41223082
-0.31786001 -0.68466002 -1.1859 0.0044898982 0.049616665 -0.25706571 0.26184872
-0.31553999 -0.68436003 -1.1854 0.0043686517 0.045486242 -0.30318481 0.30660903
-0.31358001 -0.68504 -1.1866 0.0078765964 0.054749519 -0.25492996 0.26086172
-0.31108999 -0.68423998 -1.1852 -0.0013251603 0.050838649 -0.28734511 0.29181081
-0.30928999 -0.68541002 -1.1872 -0.011125352 0.05565232 -0.26477271 0.27078691
-0.30680999 -0.68461001 -1.1858 -0.01024062 0.0078628659 -0.41901371 0.41921258
-0.30483001 -0.68528998 -1.187 -0.01768074 0.046112627 -0.30046076 0.30449244
-0.30252001 -0.68497002 -1.1865 -0.014399664 0.021143675 -0.31200716 0.31305411
-0.30022001 -0.68466002 -1.1859 -0.0043438422 0.0088381469 -0.29931283 0.29947481
-0.28964999 -0.68602002 -1.1883 -0.0053177648 0.044912666 -0.30473217 0.30807
-0.28735 -0.68568999 -1.1877 -0.01151152 0.055926234 -0.27323419 0.27913648
-0.28246 -0.68404001 -1.1848 -0.013053378 0.028754532 -0.30066615 0.30231994
-0.28031999 -0.68419999 -1.1851 0.010913961 -0.55682552 0.29123038 0.62848145
-0.27803001 -0.68386 -1.1845 -0.0077692177 -0.096031994 -0.52167797 0.53050011
-0.27590001 -0.68401998 -1.1848 0.0019358338 -0.051964313 -0.4767471 0.47957462
-0.26761001 -0.68562001 -1.1876 -0.008640172 0.035508305 -0.19689587 0.20025851
-0.26519001 -0.68478 -1.1861 -0.016319362 0.035626739 -0.26852402 0.27136827
-0.26317999 -0.68541998 -1.1872 -0.017532622 0.032227427 -0.29706967 0.29932657
-0.26064 -0.68408 -1.1849 -0.0087719876 0.025256425 -0.31934097 0.32045826
-0.25863001 -0.68471003 -1.186 -0.0038003009 0.028646439 -0.28550962 0.28696829
-0.25648999 -0.68484998 -1.1863 0.0048571061 0.05457598 -0.24614993 0.25217438
-0.25433999 -0.68498999 -1.1865 0.0081422487 0.053298175 -0.29378626 0.29869273
-0.25220001 -0.68513 -1.1867 0.013859726 0.061081558 -0.21508595 0.22402012
-0.24992999 -0.68476999 -1.1861 0.0025221147 0.060681492 -0.30210742 0.30815175
-0.24778999 -0.68489999 -1.1863 0.0014699679 0.056347638 -0.27929044 0.28492168
-0.24552999 -0.68453002 -1.1857001 -0.0121827 0.034153938 -0.28924063 0.2915048
-0.24135999 -0.68528998 -1.187 -0.019120332 0.040923208 -0.2040849 0.20902379
-0.23683999 -0.68453997 -1.1857001 -0.0093287574 0.037755877 -0.23166829 0.23491004
-0.23492999 -0.68566 -1.1876 -0.013244585 0.041561306 -0.20325071 0.20787884
-0.23277999 -0.68577999 -1.1878 -0.016361728 0.043175071 -0.20180391 0.20701839
-0.22634 -0.68611997 -1.1885 -0.0046596834 0.046660304 -0.27810264 0.28202832
-0.22419 -0.68623 -1.1885999 -0.0051117768 0.037242085 -0.2747224 0.27728233
-0.22225 -0.68734002 -1.1906 0.0012136437 0.050601095 -0.26501858 0.26980883
-0.2199 -0.68645 -1.189 0.0041615916 0.04416281 -0.30248898 0.30572414
-0.21746001 -0.68506998 -1.1866 0.01394669 0.038484037 -0.23974276 0.24321209
-0.21540999 -0.68567002 -1.1877 0.0070802253 0.031868488 -0.24613267 0.24828818
-0.21149001 -0.68786001 -1.1914999 0.0070724236 0.045378387 -0.19465712 0.20000152
-0.20906 -0.68646997 -1.189 -0.0023318364 0.03846994 -0.24102989 0.24409175
-0.20691 -0.68655998 -1.1892 -0.0031846585 0.049028546 -0.20963871 0.21531913
-0.2045 -0.68516999 -1.1868 -0.0030604433 0.023847163 -0.30809343 0.30903012
-0.20243999 -0.68576002 -1.1878 -0.0021623503 0.039912194 -0.25591809 0.25902072
-0.20021001 -0.68535 -1.1871001 -0.0031701755 0.039476484 -0.24833229 0.25147042
-0.18934 -0.68478 -1.1861 0.0023605339 -0.00045710802 -0.23314521 0.2331576
-0.18697 -0.68335998 -1.1837 0.0085329497 -0.0059628487 -0.20130174 0.20157072
-0.18483999 -0.68344003 -1.1838 0.01365927 -0.0016601384 -0.21460485 0.21504553
-0.18284 -0.68450999 -1.1857001 0.0026989514 0.0054196119 -0.22471783 0.22479938
-0.18076 -0.68509001 -1.1867 -0.0016020344 -0.009644419 -0.31493074 0.31508243
-0.17862 -0.68515998 -1.1868 0.002111254 0.0099350512 -0.28091094 0.28109449
-0.17648 -0.68523002 -1.1869 0.00061981246 0.025648355 -0.22702482 0.22846989
-0.16998 -0.68493003 -1.1864001 -0.0083113313 -0.019044787 -0.29787022 0.29859412
-0.16784 -0.68498999 -1.1865 -0.01269168 -0.022821099 -0.33202988 0.33305514
-0.1657 -0.68505001 -1.1866 -0.0086359782 -0.021253794 -0.33516729 0.33595151
-0.16366 -0.68611002 -1.1884 -0.0072240205 0.032613218 -0.24232408 0.24461555
-0.15707 -0.68478 -1.1861 0.00019903854 0.01045841 -0.20551473 0.20578076
-0.15493 -0.68483001 -1.1862 -0.0013593119 0.0084449351 -0.20904361 0.20921853
-0.14418 -0.68456 -1.1857001 -0.0092972582 -0.0030335486 -0.25376755 0.25395593
-0.14204 -0.6846 -1.1858 -0.012175922 0.0045335889 -0.22152784 0.22190852
-0.11849 -0.68541998 -1.1872 -0.014228158 -0.035941601 -0.43096405 0.43269417
-0.11634 -0.68544 -1.1873 -0.0080038626 -0.7383157 0.21731085 0.769674
-0.11417 -0.68444997 -1.1856 -0.0048188819 -0.018678337 -0.40430716 0.40476707
-0.11208 -0.68646997 -1.189 -0.0073970165 0.017668307 -0.3176946 0.31827152
-0.10994 -0.68698001 -1.1899 -0.00088963122 0.041858613 -0.26597106 0.26924625
-0.10781 -0.68799001 -1.1917 0.0008801794 0.045147926 -0.2453942 0.24951437
-0.10565 -0.6875 -1.1908 0.0056189382 0.047996342 -0.19449504 0.20040843
-0.10134 -0.68700999 -1.1900001 0.0010764839 0.038345903 -0.19992541 0.20357244
-0.097038001 -0.68651003 -1.1891 -0.007023775 0.027644038 -0.2734226 0.27490622
-0.094889 -0.68651003 -1.1891 -0.0024995799 0.032730103 -0.22554111 0.22791731
-0.092740998 -0.68651003 -1.1891 0.0021641003 0.023285002 -0.23428386 0.23544809
-0.090591997 -0.68650001 -1.1891 0.0021066458 0.019158155 -0.234999 0.23578805
-0.088450998 -0.68599999 -1.1882 0.0049792901 0.036560863 -0.24149334 0.24429598
-0.086304002 -0.68598998 -1.1882 0.01393035 -0.43353203 0.29866225 0.5266338
-0.084146999 -0.68647999 -1.1891 0.0024473895 0.041117579 -0.22592992 0.22965403
-0.082084 -0.68296999 -1.183 0.018438365 -0.015496612 -0.47933078 0.47993553
-0.079809003 -0.68795002 -1.1916 -0.0092346082 0.054873943 -0.21504478 0.22212763
-0.077765003 -0.68444002 -1.1855 -0.0068955636 0.023981601 -0.3305366 0.33147717
-0.073482998 -0.68440002 -1.1855 -0.0058106426 0.013693839 -0.3874456 0.38773105
-0.071278997 -0.68588001 -1.188 0.0014977236 0.03701511 -0.28227773 0.28469822
-0.069155 -0.68536001 -1.1871001 0.0068566492 0.033397287 -0.2813828 0.28344077
-0.060430001 -0.68774003 -1.1913 0.0027230035 0.039626658 -0.20724016 0.21101226
-0.058309 -0.68721002 -1.1903 -0.00147832 0.035958469 -0.24772279 0.25032333
-0.056322999 -0.68467999 -1.1859 -0.0060073612 0.023978114 -0.30671057 0.30770507
-0.054216001 -0.68414003 -1.1849999 0.0061997017 -0.060476214 -0.48446935 0.48826873
-0.052003 -0.68510002 -1.1867 0.014057833 -0.038897038 -0.53890276 0.54048753
-0.047596 -0.68651998 -1.1891 0.0036179409 0.041189522 -0.26985759 0.27300695
-0.041241001 -0.68537998 -1.1872 0.0089419065 0.012400895 -0.25689968 0.2573542
-0.039143998 -0.68483001 -1.1862 0.006789641 0.0059073269 -0.31288445 0.31301385
-0.037050001 -0.68427998 -1.1853 0.010481029 0.025115371 -0.21155922 0.21330245
-0.023913 -0.68642998 -1.189 -0.0058673788 0.020121902 -0.2022911 0.20337404
-0.021948 -0.68487 -1.1863 -0.0090984469 0.016434342 -0.20663312 0.20748523
-0.015256 -0.68665999 -1.1894 -0.00071023195 0.031333447 -0.2036282 0.20602605
-0.013107 -0.68659002 -1.1892999 0.0050526476 0.02533561 -0.22760952 0.22907098
-0.0088101001 -0.68643999 -1.189 0.0073188441 0.020538658 -0.24985838 0.25080791
-0.0067352001 -0.68585998 -1.188 0.0097315516 0.037521601 -0.23237254 0.23558347
-0.0024433001 -0.6857 -1.1877 -0.0028756354 0.022435874 -0.3693319 0.37002391
0.025622001 -0.68545997 -1.1873 -0.0046177013 0.031508297 -0.22216776 0.22443843
0.030014001 -0.68573999 -1.1878 0.0032140859 0.065115362 -0.27837142 0.28590381
0.038922999 -0.68677002 -1.1896 0.0016374195 0.013529867 -0.25591022 0.25627285
0.041072 -0.68664998 -1.1894 0.0041439636 0.02654615 -0.26739949 0.2687459
0.065076001 -0.68669999 -1.1895 0.015651826 0.050958991 -0.21654852 0.22301358
0.074081004 -0.68760997 -1.191 -0.0024581226 0.023356706 -0.37937149 0.38009775
0.076233 -0.68746001 -1.1908 -0.0079990486 0.027523726 -0.31502625 0.31632748
0.078383997 -0.68730998 -1.1905 -0.0089174286 0.03269282 -0.33196676 0.33369187
0.088983998 -0.68602002 -1.1883 0.007526231 0.00827384 -0.2791878 0.27941176
0.091131002 -0.68585998 -1.188 0.0086493036 0.016635627 -0.23623511 0.23697802
0.095886 -0.68700999 -1.1900001 0.011224032 0.053860933 -0.20697819 0.2141657
0.097879 -0.68634999 -1.1888 -0.0048060222 0.066709936 -0.2376264 0.24685952
0.10066 -0.68814999 -1.192 -0.0059052249 0.052268445 -0.20054284 0.20732653
0.11391 -0.68807 -1.1918 0.011244178 0.049633265 -0.21301781 0.21901251
0.12915 -0.68721998 -1.1904 -0.0012231644 0.034775794 -0.24443285 0.2468973
0.13167 -0.68800998 -1.1917 -0.004756846 0.044327497 -0.20551443 0.21029441
0.14692 -0.68706 -1.1901 -0.0039139581 0.085802346 -0.24564943 0.2602326
0.15572 -0.68668002 -1.1894 -0.0032432885 0.066654235 -0.24895827 0.25774702
0.15827 -0.68743998 -1.1907001 0.00025885657 0.067878693 -0.22307886 0.23317754
0.19035999 -0.68852001 -1.1926 -0.014414782 0.036471605 -0.20885362 0.21250364
0.20206 -0.68918002 -1.1938 0.0023986343 0.051585317 -0.25721481 0.26234758
0.20637999 -0.68866003 -1.1928 -0.0020128195 0.054157078 -0.19445354 0.20186436
0.20996 -0.68667001 -1.1894 -0.0066109975 0.03529653 -0.21650618 0.21946406
0.23106 -0.68756998 -1.191 -0.01634863 0.044337541 -0.28453669 0.28843409
0.24260999 -0.68756002 -1.1909 -0.00018507987 0.026379257 -0.25515136 0.25651145
0.24664 -0.68647999 -1.1891 0.0015679086 0.030998111 -0.1981819 0.20059761
0.25148001 -0.68684 -1.1897 -0.0066677397 0.044062674 -0.23908061 0.24319851
0.25549999 -0.68575001 -1.1878 -0.016885936 0.013383597 -0.35459137 0.35524541
0.25931001 -0.68831998 -1.1923 -0.007343994 0.051710755 -0.28207716 0.28687188
0.26034999 -0.68608999 -1.1884 0.0052928855 0.03527844 -0.39640084 0.39800277
0.26390001 -0.68817002 -1.192 0.013525264 0.070979536 -0.22412451 0.23548423
0.26662001 -0.68882 -1.1931 0.0091491546 0.05785045 -0.19198424 0.20071954
0.27983001 -0.68735999 -1.1906 0.0069020875 0.11122635 -0.1847202 0.21573246
0.28286001 -0.68845999 -1.1925 0.0064463192 0.09887749 -0.34624833 0.36014751
0.28501999 -0.68813002 -1.1919 0.0024497798 0.072673857 -0.30170268 0.31034175
0.29453 -0.68821001 -1.1921 -0.0042242706 0.026947439 -0.21712922 0.21883579
0.30098999 -0.68717998 -1.1903 2.3820437e-05 0.029813737 -0.21717924 0.21921605
0.31793001 -0.68753999 -1.1909 -0.0022813824 0.065047979 -0.2273543 0.23648769
0.32933 -0.68664998 -1.1894 0.0043225782 0.0097819269 -0.35640627 0.35656667
0.33213001 -0.68722999 -1.1904 0.0053781234 0.0099620223 -0.38936552 0.38953009
0.33809 -0.68883002 -1.1931 -0.00109448 0.056143135 -0.2414223 0.24786685
0.35135001 -0.68699002 -1.1899 0.0067682955 0.065713733 -0.32798752 0.33457422
0.35953 -0.68814999 -1.192 -0.015073639 0.055935711 -0.25763094 0.26406386
0.36774001 -0.68928999 -1.1939 0.00087083224 0.051857471 -0.21850811 0.22457905
0.37206 -0.68847001 -1.1925 -0.0048966734 0.043198109 -0.2228602 0.22706105
0.37421 -0.68805999 -1.1918 -0.0002342267 0.043652445 -0.23892455 0.24287966
0.37996 -0.68910003 -1.1936001 -0.0089908447 0.026040077 -0.24472034 0.24626605
0.38572001 -0.69013 -1.1954 0.017922524 0.050655633 -0.26396176 0.26937523
0.39041001 -0.68975002 -1.1947 0.0055777361 0.056210011 -0.23526372 0.24194977
0.39219999 -0.68886 -1.1932 -0.003672054 0.055902481 -0.26329634 0.26919052
0.39546001 -0.68981999 -1.1949 -0.0023539197 0.06442675 -0.29908013 0.30594981
0.39761999 -0.68939 -1.1941 0.0010027559 0.060771912 -0.26784372 0.2746534
0.39978001 -0.68896002 -1.1934 -0.0015121633 0.060731709 -0.2228258 0.23095879
0.41384 -0.68770999 -1.1912 -0.0014572034 0.028986752 -0.26821902 0.26978472
0.42908999 -0.68776 -1.1913 -0.011243256 0.064952552 -0.25375861 0.26218063
0.43123999 -0.68730003 -1.1905 0.00068005314 0.042920321 -0.30151218 0.30455247
0.43417999 -0.68776 -1.1913 0.0038054897 0.037059695 -0.23102912 0.23401359
0.4499 -0.68813998 -1.1919 -0.015178137 0.050346166 -0.19302545 0.20005983
0.47126001 -0.68880999 -1.1931 -0.0042288341 0.022105932 -0.28555185 0.28643742
0.47341999 -0.68831003 -1.1921999 -0.012035911 0.0067953765 -0.27493376 0.27528095
0.50572002 -0.68893999 -1.1933 0.0058213263 0.056156546 -0.20823915 0.21575679
0.50831997 -0.68887001 -1.1932 0.022062557 0.055091619 -0.24240471 0.2495634
0.52266002 -0.68978 -1.1948 -0.026858982 0.038011223 -0.21977282 0.22464716
0.52346998 -0.68790001 -1.1914999 -0.03604668 0.026671171 -0.23858465 0.24276192
0.52561998 -0.68734998 -1.1906 0.00029993919 0.011392772 -0.31086612 0.31107494
0.53878999 -0.68961 -1.1945 0.0096953837 0.028705806 -0.21150279 0.21366201
0.56379002 -0.68983001 -1.1949 0.0082955277 0.044301659 -0.21479332 0.21947123
0.56857997 -0.68911999 -1.1936001 -0.0055183698 0.044906914 -0.28880996 0.29233247
0.57169002 -0.68941998 -1.1942 -0.0032495668 0.037618488 -0.25746045 0.26021451
0.58007997 -0.68940997 -1.1941 0.012148358 0.051293075 -0.21151991 0.21798907
0.62011999 -0.68961 -1.1945 0.008508075 0.028425634 -0.25517738 0.25689667
0.63344002 -0.68861002 -1.1928 -0.0055208891 -0.11437696 0.1834861 0.2162862
0.64195001 -0.68839997 -1.1924 0.019801147 -0.21076238 0.25390244 0.33057421
0.65151 -0.68901998 -1.1935 -0.0018352553 -0.12423062 0.18495393 0.22281061
0.66162997 -0.69003999 -1.1952 0.00084936293 0.035015851 -0.20267837 0.20568265
0.67184001 -0.68865001 -1.1928 0.0013644747 0.052964896 -0.20936343 0.21596341
0.67505002 -0.68883002 -1.1931 0.010271756 0.04229784 -0.3063437 0.30942056
0.68741 -0.68906999 -1.1936001 -0.010777422 0.030354291 -0.26714712 0.26908201
0.69063997 -0.68923002 -1.1938 -0.011289772 0.019564241 -0.2411987 0.24225406
0.69981003 -0.68926001 -1.1939 -0.004957011 0.025529414 -0.21799877 0.2195445
0.70251 -0.68899 -1.1934 0.0043589612 0.04056862 -0.2490468 0.25236702
0.70576 -0.68913001 -1.1937 0.017809615 0.048308343 -0.28646168 0.29105183
0.71390003 -0.69064999 -1.1963 -0.0028246292 0.041294187 -0.19737391 0.20166717
0.71987998 -0.69047999 -1.196 0.005426087 0.037249357 -0.21275374 0.21605812
-0.94954002 -0.68200999 -1.1813 0.045144547 0.035121322 -0.29046524 0.29604325
-0.94028997 -0.68217999 -1.1816 0.0020406116 0.038232476 -0.32398564 0.32624006
-0.92352998 -0.68365997 -1.1842 0.0011990885 0.052449852 -0.23995192 0.24562034
-0.92027003 -0.68355 -1.184 -0.021038944 0.056767881 -0.29368329 0.29985848
-0.90673 -0.68265998 -1.1824 0.015905373 -0.036567181 -0.40937135 0.41130891
-0.87238997 -0.66342998 -1.1490999 -0.70538181 0.6365512 0.18906914 0.96876627
-0.87032002 -0.66411 -1.1503 -0.72573686 0.61829674 0.21080999 0.97643518
-0.87344998 -0.68272001 -1.1825 -0.066914827 -0.14095539 0.25998443 0.30321264
-0.86491001 -0.68304998 -1.1831 -0.015741467 0.056922913 -0.20484701 0.21319078
-0.86118001 -0.68245 -1.1821001 -0.0053878017 -0.5895673 0.29366958 0.65868086
-0.8373 -0.68216002 -1.1816 0.019541584 -0.0032942295 -0.29132885 0.29200211
-0.83464998 -0.68238002 -1.182 0.021441124 0.0053756535 -0.2450166 0.2460117
-0.80160999 -0.66197002 -1.1466 0.16316877 0.12884131 -0.38317734 0.43594611
-0.79903001 -0.66215003 -1.1469001 0.18554553 -0.053294957 -0.48253444 0.51971817
-0.78574997 -0.65794998 -1.1396 0.16181503 -0.053215355 -0.15895341 0.23298533
-0.78064001 -0.65828001 -1.1402 0.22263752 -0.029700011 -0.18374452 0.29019237
-0.77859002 -0.65888 -1.1413 0.21047613 -0.006303221 -0.15972787 0.26429704
-0.77854002 -0.66119999 -1.1453 0.2154212 0.016526729 -0.11994658 0.2471166
-0.77875 -0.67839998 -1.1751 -0.10824734 -0.085357904 -0.18610194 0.23159748
-0.77907002 -0.68118 -1.1799001 0.19873391 -0.074839979 -0.078892514 0.22653966
-0.77692997 -0.68177003 -1.1809 0.23482624 -0.086526901 -0.072905287 0.26066348
-0.7748 -0.68235999 -1.1819 0.084253967 -0.83767998 0.32708448 0.90321136
-0.77170002 -0.68207997 -1.1813999 -0.18134679 -0.091093063 -0.33676055 0.39318225
-0.75696999 -0.68382001 -1.1845 -0.031516794 -0.094557047 -0.2500146 0.26914987
-0.75173998 -0.68408 -1.1849 -0.11532115 -0.023122609 -0.1947736 0.22753105
-0.73303002 -0.68449003 -1.1856 0.0043204445 0.063511401 -0.29196671 0.29882592
-0.72952002 -0.68370998 -1.1842999 0.016997641 0.041196495 -0.2385499 0.242677
-0.70744002 -0.68313998 -1.1833 0.016043324 0.076757878 -0.18758142 0.20331244
-0.70529997 -0.68366998 -1.1842 0.005127369 0.065384299 -0.21753266 0.22720443
-0.70014 -0.68383002 -1.1845 0.010772912 0.063328028 -0.23568462 0.24428208
-0.69668001 -0.68300998 -1.1831 -0.00041160733 0.047890037 -0.28140983 0.28545597
-0.68594998 -0.68283999 -1.1828001 0.012239423 0.01311937 -0.35132596 0.35178381
-0.68080997 -0.68295997 -1.183 0.016967658 0.046218425 -0.28839666 0.2925691
-0.67825001 -0.68302 -1.1831 0.0051344773 0.032729983 -0.27869493 0.28065723
-0.67140001 -0.68408 -1.1849 -0.0010443274 0.050072938 -0.25987715 0.26465926
-0.66799998 -0.68322003 -1.1834 0.036038194 -0.38594088 0.30345514 0.49227446
-0.66586 -0.68370998 -1.1842999 0.06023252 -0.21058327 0.23474319 0.32105705
-0.66158003 -0.68470001 -1.186 0.026722301 0.043610543 -0.22321941 0.22900407
-0.64247 -0.68353999 -1.184 0.012273849 0.059425324 -0.27335677 0.28001061
-0.63993001 -0.68356001 -1.184 0.0076609752 0.012957305 -0.3036117 0.30398461
-0.63270998 -0.68405002 -1.1849 0.0085671293 0.036577582 -0.19752128 0.20106211
-0.61671001 -0.68313998 -1.1833 0.017583875 0.026309043 -0.30101117 0.30266991
-0.61378998 -0.68267 -1.1825 0.014630543 0.041445702 -0.20833328 0.21291913
-0.61205 -0.68357998 -1.1841 0.0097960494 0.036915898 -0.21745132 0.22078003
-0.60952002 -0.68357003 -1.184 0.0064982506 0.038333982 -0.20419234 0.20786108
-0.60777003 -0.68448001 -1.1856 0.00052976934 0.06325078 -0.26247427 0.2699883
-0.60486001 -0.68400002 -1.1848 -0.0062058461 0.058980465 -0.25556791 0.26235884
-0.59188998 -0.68340999 -1.1838 0.026278038 0.034221798 -0.25199956 0.25566667
-0.58687001 -0.68334001 -1.1835999 -0.0021710549 0.031702787 -0.21338908 0.21574217
-0.58398998 -0.68283999 -1.1828001 0.0022515696 0.030238599 -0.24369925 0.24557844
-0.57934999 -0.68322003 -1.1834 -0.0061570276 0.037954152 -0.22745094 0.23067804
-0.57435 -0.68313003 -1.1833 0.0085820733 0.040229291 -0.20911574 0.21312307
-0.57221001 -0.68353999 -1.184 0.014115213 0.03497535 -0.24859086 0.25143573
-0.56971002 -0.68348998 -1.1839 0.013508164 0.025118291 -0.26661325 0.26813433
-0.56721997 -0.68344003 -1.1838 0.011650339 0.043376356 -0.19604164 0.20112078
-0.56471997 -0.68338001 -1.1837 0.0044923811 0.026693702 -0.24575341 0.24723971
-0.56116003 -0.68191999 -1.1812 -0.020346712 -0.003330946 -0.40392715 0.40445298
-0.55903 -0.68232 -1.1819 -0.024426658 -0.016012877 -0.40052849 0.40159202
-0.54696 -0.68243998 -1.1821001 -0.011823683 0.011879355 -0.24351723 0.24409334
-0.54268998 -0.68322003 -1.1834 -0.010006955 0.0099693835 -0.24222362 0.24263513
-0.52851999 -0.68362999 -1.1841 -0.0088251866 0.029792637 -0.232153 0.23422319
-0.52604997 -0.68352997 -1.184 -0.0012007116 -0.01871115 -0.3771089 0.37757471
-0.52424002 -0.68437999 -1.1854 -0.0078851609 0.02676636 -0.21206339 0.21389131
-0.52177 -0.68427998 -1.1853 -0.00093748153 0.023869216 -0.21552199 0.21684176
-0.51222998 -0.68432999 -1.1853 0.016265007 0.047986537 -0.27065909 0.27536085
-0.50454003 -0.68351001 -1.1839 -0.013604502 0.052899867 -0.21564656 0.22245656
-0.49261001 -0.68335998 -1.1837 0.0044400371 0.051956594 -0.20512268 0.21164715
-0.49077001 -0.68418002 -1.1851 0.018833047 0.058231026 -0.24890211 0.25631583
-0.48833001 -0.68405002 -1.1848 0.01401782 0.063999414 -0.2507928 0.25920928
-0.48649001 -0.68485999 -1.1863 0.0064385454 0.05204761 -0.19501325 0.20194201
-0.4822 -0.68554002 -1.1874 -0.017473403 0.053591788 -0.20025007 0.20803243
-0.47797999 -0.68252999 -1.1822 0.00032390462 0.019149035 -0.40571147 0.40616328
-0.46729001 -0.68417001 -1.1851 0.0062890761 0.038177073 -0.34174317 0.34392649
-0.463 -0.68480998 -1.1862 0.010814848 0.044238001 -0.2921578 0.29568586
-0.46000999 -0.68369001 -1.1842 0.01521201 0.060725331 -0.1915682 0.20153745
-0.44977999 -0.68206 -1.1813999 -0.005312359 0.026844233 -0.27350098 0.27486655
-0.4391 -0.68357998 -1.184 0.010869002 0.0074652433 -0.27973157 0.28004217
-0.43697 -0.68387997 -1.1846 0.022317771 0.019633532 -0.22715902 0.22909558
-0.43509001 -0.68466002 -1.1859 0.008898777 0.054957241 -0.19361676 0.201462
-0.41262999 -0.68558002 -1.1875 0.0056455578 0.043587029 -0.20384699 0.20853129
-0.40735 -0.68418002 -1.1851 0.0056784004 0.013942927 -0.26095706 0.26139098
-0.40307 -0.68471998 -1.186 -7.8582671e-05 0.011284888 -0.37847552 0.37864372
-0.40141001 -0.68595999 -1.1882 0.017401407 -0.18097389 0.20210361 0.27184597
-0.39449 -0.68577999 -1.1878 -0.01479464 0.038163811 -0.22172758 0.2254739
-0.36844999 -0.68314999 -1.1833 -0.0048411549 0.014137954 -0.34475577 0.34507951
-0.35817999 -0.68528998 -1.187 -0.0032227691 0.033395231 -0.22501618 0.22750364
-0.35174 -0.68595999 -1.1882 0.01463159 0.059498787 -0.21528047 0.22383001
-0.34878999 -0.68422002 -1.1852 0.010627054 0.054770648 -0.38253015 0.3865774
-0.34645 -0.68395001 -1.1847 0.0079222154 0.025819331 -0.42698872 0.42784199
-0.34294999 -0.68634999 -1.1888 -0.0050156983 0.04676038 -0.26882142 0.2729041
-0.34040999 -0.68558002 -1.1875 -0.017385019 0.063198388 -0.26284873 0.27089801
-0.33555001 -0.68453002 -1.1857001 -0.012972529 0.0034988225 -0.34551263 0.34577379
-0.33302999 -0.68374997 -1.1842999 0.015474088 -0.020287007 -0.43660009 0.437345
-0.33089 -0.68396002 -1.1847 0.0093156863 0.0039772987 -0.36181605 0.36195782
-0.32894 -0.68465 -1.1859 0.002271255 0.0080381334 -0.38849339 0.38858315
-0.32679 -0.68484998 -1.1862 -0.0060915984 0.030696303 -0.31000948 0.31158504
-0.32464999 -0.68505001 -1.1866 -0.0060335444 0.027931035 -0.32808587 0.32932794
-0.31786001 -0.68466002 -1.1859 0.0044898982 0.049616665 -0.25706571 0.26184872
-0.31571999 -0.68484998 -1.1862 0.001978942 0.041485816 -0.28719565 0.29018328
-0.31358001 -0.68504 -1.1866 0.0078765964 0.054749519 -0.25492996 0.26086172
-0.31126001 -0.68472999 -1.186 -0.0027913782 0.059251308 -0.2922554 0.29821423
-0.30928999 -0.68541002 -1.1872 -0.011125352 0.05565232 -0.26477271 0.27078691
-0.30698001 -0.68510002 -1.1867 -0.014213126 0.029636055 -0.37754986 0.37897784
-0.30500001 -0.68577999 -1.1878999 -0.014567798 0.048463643 -0.27732253 0.28190199
-0.30269 -0.68546999 -1.1873 -0.011837121 0.032653123 -0.32241046 0.32427588
-0.28981 -0.68651003 -1.1891 -0.0026904927 0.041360825 -0.32648316 0.32910365
-0.28751001 -0.68618 -1.1885999 -0.0088848844 0.049914181 -0.32180583 0.325775
-0.28231001 -0.68355 -1.184 -0.016755028 0.012519717 -0.33465123 0.33530423
-0.28047001 -0.68470001 -1.186 -0.010891987 -0.093242735 -0.56665903 0.57438254
-0.27818 -0.68436003 -1.1854 -0.0087536881 -0.055106997 -0.48498279 0.48818204
-0.27575001 -0.68352997 -1.184 0.00072950777 -0.073314875 -0.54129803 0.54624093
-0.26719001 -0.68414003 -1.1849999 -0.0090941638 0.030942529 -0.26725259 0.26919153
-0.26532999 -0.68528003 -1.187 -0.019001249 0.039905608 -0.24251795 0.24651259
-0.26345 -0.68641001 -1.1889 -0.021491846 0.044738621 -0.25245512 0.25728783
-0.25863001 -0.68471998 -1.186 -0.0037636198 0.027425677 -0.28252178 0.28387478
-0.25661999 -0.68535 -1.1871001 0.0047358219 0.051460773 -0.24769975 0.25303322
-0.25220001 -0.68513 -1.1867 0.013859726 0.061081558 -0.21508595 0.22402012
-0.25018001 -0.68576002 -1.1878 0.018615421 0.06151855 -0.19977009 0.20985508
-0.23695999 -0.68504 -1.1866 -0.015550962 0.038615704 -0.24904387 0.25249919
-0.23492999 -0.68566 -1.1876 -0.013244585 0.041561306 -0.20325071 0.20787884
-0.23255999 -0.68478 -1.1861 -0.013875177 0.043642163 -0.25182706 0.2559571
-0.22603001 -0.68462998 -1.1859 -0.0065015592 0.039906919 -0.28235635 0.28523663
-0.22419 -0.68624002 -1.1885999 -0.0051117768 0.037242085 -0.2747224 0.27728233
-0.22154 -0.68386 -1.1845 -0.0072391597 0.0024467409 -0.38878345 0.38885856
-0.21950001 -0.68445998 -1.1856 -0.0094607351 0.0094107091 -0.36239839 0.36264399
-0.21746001 -0.68506998 -1.1866 0.01394669 0.038484037 -0.23974276 0.24321209
-0.21531001 -0.68516999 -1.1868 -0.00092317001 -0.0039314926 -0.3661443 0.36616656
-0.21325999 -0.68576998 -1.1878 0.00052254088 0.029620171 -0.27293882 0.27454185
-0.20897 -0.68597001 -1.1882 -0.003185509 0.037350893 -0.2477628 0.25058261
-0.20664001 -0.68506998 -1.1866 0.00010059308 0.038818091 -0.30721217 0.30965492
-0.2045 -0.68516999 -1.1868 -0.0030604433 0.023847163 -0.30809343 0.30903012
-0.20236 -0.68526 -1.187 0.0011307313 0.025376946 -0.3191933 0.3202025
-0.20029999 -0.68585002 -1.188 -0.0062704985 0.044341445 -0.22670323 0.23108405
-0.19140001 -0.68419999 -1.1851 -0.0062810658 0.003124088 -0.22894898 0.22905643
-0.18934 -0.68478 -1.1861 0.0023605339 -0.00045710802 -0.23314521 0.2331576
-0.18291 -0.68501002 -1.1865 0.0055332319 0.0092705786 -0.2244269 0.22468643
-0.18097 -0.68658 -1.1892 0.0062575149 0.015757173 -0.20813918 0.20882855
-0.17862 -0.68515998 -1.1868 0.002111254 0.0099350512 -0.28091094 0.28109449
-0.17641 -0.68472999 -1.186 0.0015411804 0.029168308 -0.21400574 0.21598986
-0.1701 -0.68593001 -1.1881 -0.0077305716 0.013970464 -0.28017864 0.28063321
-0.1679 -0.68549001 -1.1874 -0.010836948 -0.004950732 -0.31872809 0.31895068
-0.16581 -0.68605 -1.1883 -0.007573674 0.020844698 -0.24782431 0.2488147
-0.16366 -0.68611002 -1.1884 -0.0072240205 0.032613218 -0.24232408 0.24461555
-0.11642 -0.68794 -1.1916 -0.011473692 0.033888012 -0.22404501 0.22688369
-0.11424 -0.68695003 -1.1899 -0.010837451 0.025269032 -0.30521759 0.30645353
-0.11209 -0.68697 -1.1899 -0.0096236784 0.030611277 -0.29423544 0.29598001
-0.10994 -0.68698001 -1.1899 -0.00088963122 0.041858613 -0.26597106 0.26924625
-0.10779 -0.68699002 -1.1900001 0.0055808225 0.047161996 -0.2045733 0.21001342
-0.10134 -0.68700999 -1.1900001 0.0010764839 0.038345903 -0.19992541 0.20357244
-0.097038001 -0.68700999 -1.1900001 -0.0066086124 0.037200361 -0.2043668 0.20783006
-0.092740998 -0.68651003 -1.1891 0.0021641003 0.023285002 -0.23428386 0.23544809
-0.090586998 -0.68700999 -1.1900001 0.00095860288 0.029029667 -0.22570802 0.22756922
-0.086313002 -0.68549001 -1.1874 0.00089036999 -0.78482103 0.18238214 0.80573452
-0.084168002 -0.68548 -1.1873 -0.0003310102 -0.73535216 0.20760134 0.76409507
-0.082023002 -0.68546999 -1.1873 -0.0024992875 -0.04342103 -0.51965684 0.52147377
-0.079850003 -0.68645 -1.189 -0.0026479778 0.038465232 -0.31302285 0.31538847
-0.077734001 -0.68544 -1.1873 -0.0086136973 0.030028194 -0.26125008 0.26311117
-0.075589001 -0.68541998 -1.1872 -0.0071699843 0.027235806 -0.20242056 0.20437045
-0.073444001 -0.68540001 -1.1872 -0.0074254223 0.041580915 -0.26072541 0.26412469
-0.071258001 -0.68638003 -1.1889 9.1587193e-05 0.047381878 -0.28340334 0.28733692
-0.056290001 -0.68518001 -1.1868 -0.0023710667 -0.0041935146 -0.43860626 0.4386327
-0.051929001 -0.68610001 -1.1884 0.0021115448 0.029911458 -0.38622594 0.3873882
-0.047555 -0.68702 -1.1900001 0.00017409492 0.044263393 -0.24780968 0.25173184
-0.041196 -0.68588001 -1.188 0.0072510662 0.018238902 -0.2248129 0.22566806
-0.039097 -0.68532997 -1.1871001 0.010740803 0.024575859 -0.20484707 0.20659541
-0.021826001 -0.68586999 -1.188 -0.0067888573 0.021287858 -0.21132803 0.212506
-0.015256 -0.68665999 -1.1894 -0.00071023195 0.031333447 -0.2036282 0.20602605
-0.013107 -0.68659002 -1.1892999 0.0050526476 0.02533561 -0.22760952 0.22907098
-0.011028 -0.68601 -1.1883 0.0075261849 0.02306366 -0.270913 0.27199712
-0.0088101001 -0.68643999 -1.189 0.0073188441 0.020538658 -0.24985838 0.25080791
-0.0067352001 -0.68585998 -1.188 0.0097315516 0.037521601 -0.23237254 0.23558347
-0.0044391998 -0.68677998 -1.1896 0.0022428958 0.0411309 -0.24630389 0.24972461
-0.0023666001 -0.68620002 -1.1885999 -0.0015814551 0.027675509 -0.33435616 0.33550331
0.030115999 -0.68624002 -1.1887 -0.0061355773 0.064248443 -0.25715551 0.26513103
0.039032999 -0.68726999 -1.1904 0.0027290143 0.022134155 -0.21720514 0.21834706
0.041184001 -0.68715 -1.1902 0.0014965928 0.021509171 -0.25284579 0.25376344
0.073942997 -0.68711001 -1.1902 -0.0027562887 -0.0043617785 -0.41571826 0.41575029
0.075815 -0.68597001 -1.1882 -0.0085933935 0.012795925 -0.32542711 0.32579193
0.078524999 -0.68779999 -1.1914001 -0.011983803 0.035687476 -0.30220807 0.30454379
0.089134 -0.68651998 -1.1891 0.0097554373 0.013464063 -0.28000683 0.28050002
0.091131002 -0.68585998 -1.188 0.0086493036 0.016635627 -0.23623511 0.23697802
0.097879 -0.68634999 -1.1888 -0.0048060222 0.066709936 -0.2376264 0.24685952
0.10019 -0.68667001 -1.1894 -0.007224103 0.057858795 -0.23329002 0.24046633
0.10249 -0.68699002 -1.1899 -0.0099912863 0.062352061 -0.24095166 0.24908896
0.11391 -0.68807 -1.1918 0.011244178 0.049633265 -0.21301781 0.21901251
0.12897 -0.68673003 -1.1895 -0.00050725508 0.02845937 -0.29465693 0.29602855
0.13149001 -0.68752003 -1.1909 -0.0045257541 0.045331597 -0.2397757 0.2440652
0.14458001 -0.68677998 -1.1896 -0.00074656587 0.078458518 -0.24395697 0.25626412
0.16472 -0.68676001 -1.1896 -0.0036571289 0.04368639 -0.3346459 0.33750519
0.18233 -0.68585002 -1.188 0.00021348591 0.050045282 -0.23628029 0.24152216
0.19035999 -0.68852001 -1.1926 -0.014414782 0.036471605 -0.20885362 0.21250364
0.19137 -0.68583 -1.1878999 -0.0081603639 -0.013911486 -0.36207128 0.3624303
0.19420999 -0.68703997 -1.1900001 -0.018425278 0.048564851 -0.226117 0.23200631
0.19611999 -0.68629998 -1.1888 -0.014069766 0.048154473 -0.24701123 0.25205427
0.20112 -0.68724 -1.1904 0.003284794 0.051611334 -0.32118377 0.32532066
0.20351 -0.68747002 -1.1908 0.0037408471 0.052055657 -0.27881297 0.28365552
0.20566 -0.68720001 -1.1903 0.0012483537 0.055014938 -0.31438738 0.31916708
0.20996 -0.68667001 -1.1894 -0.0066109975 0.03529653 -0.21650618 0.21946406
0.22409999 -0.68744999 -1.1907001 -0.003373852 0.049512506 -0.19792205 0.20404904
0.22866 -0.68737 -1.1906 -0.013920232 0.053401023 -0.22192124 0.22867987
