# .PCD v0.7 - Point Cloud Data file format
VERSION 0.7
FIELDS x y z normal_x normal_y normal_z curvature
SIZE 4 4 4 4 4 4 4
TYPE F F F F F F F
COUNT 1 1 1 1 1 1 1
WIDTH 641
HEIGHT 1
VIEWPOINT 0 0 0 1 0 0 0
POINTS 641
DATA ascii
228.02863 64.047058 -15.521 0.19393072 -0.18875498 -0.11206457 0.29290959
227.97472 65.056061 -15.139 0.19814685 -0.053341482 -0.07100895 0.21713996
227.79158 77.097649 -11.023 -0.059252411 0.51162153 -0.49354851 0.71334255
227.2572 74.034737 -11.384 0.31716779 -0.045211624 -0.16527858 0.36049482
227.48869 75.017349 -11.402 0.2423605 -0.11406237 -0.11289912 0.29068032
227.53188 63.04726 -16.028 0.21177706 -0.066437684 -0.082007051 0.23661919
227.37859 72.018715 -11.893 0.21433786 -0.24190728 -0.158346 0.35990736
227.41924 73.028641 -11.673 0.26054984 -0.041113041 -0.11103851 0.28619233
227.24701 69.243629 -13.514 0.35643351 -0.02921788 -0.21458852 0.41706926
227.50534 70.028816 -13.574 0.14349395 -0.150207 -0.066076696 0.21798804
226.99236 74.1203 -11.205 0.27700451 -0.00095990393 -0.12125117 0.30238098
227.04886 68.049469 -13.927 0.33504948 0.074014634 -0.19115469 0.39278039
227.17715 68.200928 -15.13 -0.074232891 0.4564949 -0.27679259 0.53899187
227.2144 63.131023 -15.464 0.20738974 -0.21273223 -0.13523239 0.32642505
226.60201 73.075279 -11.051 0.1775346 -0.26907954 -0.15289611 0.35679063
226.70789 69.012306 -13.387 0.20645002 -0.30462343 -0.20734835 0.42238653
226.49661 63.010647 -15.019 0.17011121 -0.10719168 -0.067049682 0.21195175
226.36624 68.090393 -13.558 0.34268054 -0.15320164 -0.24097222 0.44605866
107.09386 66.579323 -14.993 0.47164986 0.11254077 -0.36813557 0.6088044
226.21295 72.003677 -11.386 0.11048177 -0.28606382 -0.12935504 0.33282346
226.18564 67.043221 -13.782 0.28476712 -0.084240779 -0.14278477 0.3295092
226.01874 71.173347 -11.908 0.19495559 -0.17334162 -0.103928 0.28081316
226.28188 58.025414 -16.879999 0.42598608 0.014363401 -0.37340659 0.56665945
226.1817 59.046829 -16.657 -0.0024698451 -0.21670456 -0.056465328 0.2239538
226.57858 62.04081 -15.824 0.38776267 -0.038958494 -0.27483726 0.47687855
225.67285 67.242943 -13.178 0.19933255 -0.29534906 -0.19234347 0.40492043
225.13663 70.150665 -11.753 0.22159985 -0.19277324 -0.13209867 0.3220529
225.37085 71.028687 -11.859 0.36053091 -0.18408221 -0.29583752 0.5013867
225.2027 59.088623 -16.568001 0.18082389 -0.37363842 -0.29070747 0.50676799
225.14241 60.23917 -15.688 0.12264381 -0.28417832 -0.13665912 0.33834085
225.03174 66.090309 -13.412 0.1056572 -0.29176262 -0.13135469 0.3369613
225.65163 72.005295 -19.982 -0.13858315 0.18162686 -0.035729796 0.23123629
225.00011 57.003338 -16.898001 -0.25099331 -0.067616634 -0.042582512 0.26340637
225.00824 58.053307 -16.768 0.41274807 -0.087684013 -0.36593458 0.55853164
225.12363 69.560814 -19.212999 0.32419211 -0.067699 -0.1789366 0.37643322
224.51118 58.024273 -16.076 0.30565405 -0.061577767 -0.16306889 0.35186315
224.23334 69.054588 -11.684 0.15210009 -0.20654167 -0.095677227 0.27376637
224.36494 70.023064 -11.302 0.21629861 -0.22857547 -0.15002415 0.34862456
224.00299 68.133087 -11.971 0.19815606 -0.12323301 -0.086358994 0.24881734
224.11229 65.033714 -13.423 0.16091958 0.13428052 -0.0644238 0.21926421
224.6823 57.081669 -16.802 0.36443353 -0.092893369 -0.73901141 0.82920372
224.35783 60.008831 -15.225 0.19152997 -0.030238863 -0.065564126 0.20468701
224.02614 69.910446 -19.128 -0.36069191 0.10705197 -0.11461356 0.3933129
223.55684 69.039459 -11.263 0.20763159 -0.23988882 -0.15122572 0.35146371
223.86029 56.061783 -16.902 0.22928698 0.063226461 -0.089696974 0.25419608
223.76764 55.483135 -17.002001 -0.13795945 0.27873549 -0.076130986 0.32019091
223.19238 67.008408 -11.893 0.11203657 -0.38310936 -0.23480177 0.46309486
223.14488 68.044449 -11.478 0.18999901 -0.22476038 -0.12842533 0.32110736
223.4532 65.006561 -13.036 0.12855622 -0.22275338 -0.094167024 0.27388537
223.06667 62.091194 -13.998 -0.22185805 0.032644674 -0.024724871 0.22560583
223.15173 64.022911 -13.42 0.12953243 -0.21659391 -0.091330826 0.26838943
223.25575 59.001514 -15.134 0.017419472 -0.20478785 -0.05382967 0.21245973
223.03554 57.247757 -15.544 0.136591 -0.15794033 -0.07080856 0.22049059
222.44884 66.681442 -11.807 -0.0036354512 -0.34846458 -0.15017632 0.37946501
223.10037 55.153694 -16.729 -0.16043501 0.50840437 -0.53549051 0.75562191
223.07596 54.044846 -16.825001 0.27731815 0.03004355 -0.1255241 0.30588278
222.10643 67.011002 -11.801 -0.054692745 0.39529893 -0.81253254 0.90524125
222.05215 62.563568 -13.984 -0.27219605 0.21429011 -0.094317019 0.3590357
222.86404 55.03339 -16.705999 0.26689118 -0.19187044 -0.18132439 0.37539807
221.0255 71.463669 -10.001 -0.21213098 0.12665237 -0.0384835 0.25004271
222.57706 70.85807 -21.066 -0.091157243 0.26698533 -0.072006434 0.29116273
222.49733 63.038048 -13.63 -0.056392666 0.45674524 -0.72057736 0.85500181
222.25661 61.133915 -13.944 -0.070044331 -0.24432077 -0.066996843 0.26284486
221.01424 72.349136 -10.218 -0.16460082 0.1844936 -0.04320091 0.25099331
222.31671 71.096794 -21.441 -0.09099216 0.26665443 -0.072028428 0.29081309
222.00964 73.037254 -21.974001 -0.016124044 0.21052721 -0.04177475 0.21523666
222.31538 54.164539 -16.632999 0.21628371 -0.23599657 -0.16760498 0.36133704
221.76935 72.886513 -21.938 -0.016040258 0.21035922 -0.041786104 0.21506828
221.76947 73.046829 -21.995001 -0.015997089 0.210483 -0.041788965 0.2151867
221.42503 63.01749 -13.14 0.20419607 -0.28573111 -0.18918222 0.39890879
221.67349 70.884544 -21.237 -0.082168661 0.27390718 -0.076142401 0.29592988
222.10519 53.01162 -16.809 0.27990595 0.20157589 -0.17252198 0.38567346
221.92134 53.297867 -17.062 0.40114662 -0.067288093 -0.67260271 0.78602844
221.56686 54.503067 -16.034 0.1231519 -0.21087813 -0.092689276 0.26120353
220.15208 71.362717 -10.374 -0.1758728 0.1254416 -0.027429134 0.21775949
221.13513 71.150551 -21.478001 -0.17290074 0.29585347 -0.10786912 0.35924879
221.92171 53.137554 -16.957001 0.050409671 0.49938697 -0.38219613 0.63087428
221.17065 52.082977 -16.739 0.2614446 -0.23957762 -0.21883863 0.4167026
219.2382 84.201035 -21.656 -0.11709851 0.19408031 -0.042526722 0.23062469
220.52686 69.930794 -21.104 -0.17891227 0.19361435 -0.051246464 0.26855597
220.47078 72.061951 -21.906 -0.2856189 0.15503158 -0.080512553 0.33480623
220.96442 52.048798 -16.290001 0.2163216 0.30635381 -0.18375388 0.41762802
219.05287 71.049385 -8.9160004 -0.25033563 0.46150643 -0.44242993 0.68658602
220.3013 70.627983 -21.455 -0.15351985 0.21380845 -0.054133922 0.26872453
219.49852 71.114975 -21.707001 -0.082224026 0.20385753 -0.03975594 0.22338133
206.0079 62.03516 -11.64 -0.15675656 -0.25643513 -0.090283811 0.31381962
222.17369 74.09938 -10.45 -0.2570436 0.019494247 -0.041436821 0.26109087
219.49171 70.154678 -21.346001 -0.11904716 0.17738424 -0.032794416 0.2161316
218.26506 70.671333 -8.7040005 -0.25689417 0.45978841 -0.46532536 0.70279992
219.46739 69.915756 -21.309 -0.13094853 0.19314051 -0.040831894 0.2368924
220.19038 50.069382 -16.452999 0.22472998 -0.21091361 -0.16109896 0.34776571
220.7973 51.096584 -16.900999 0.41714638 -0.12714547 -0.47780916 0.64689928
218.83322 74.554222 -23.277 -0.19900325 -0.052409142 -0.02371949 0.20715122
217.93193 74.943138 -23.358 -0.029979946 0.41376141 -0.21091846 0.46538574
218.19542 60.051765 -13.907 0.093509614 -0.22380343 -0.082128257 0.25608021
217.74649 73.760162 -23.195 0.25869778 0.08028809 -0.11119059 0.29280379
36.051266 -32.394432 -17.164 -0.19497371 0.090010084 -0.048418492 0.22013839
217.19374 60.018085 -13.572 0.0059325285 -0.3220093 -0.13048393 0.34749278
216.01418 72.333252 -23.103001 0.19822091 0.21196756 -0.87825727 0.92496353
218.66058 50.165607 -16.517 0.17732669 -0.23408163 -0.14237013 0.32635599
216.24902 62.025936 -12.549 -0.005396232 -0.36474708 -0.1695714 0.40227354
216.53154 67.710297 -21.27 0.0020652115 0.23988083 -0.060774714 0.24746847
215.59621 71.102264 -23.131001 0.38251889 -0.10410805 -0.72795188 0.82889879
215.73898 80.077293 -23.978001 -0.0063395165 0.49728444 -0.45939127 0.67703199
197.49234 86.266708 -12.997 -0.22398837 -0.070446491 -0.045556396 0.23918378
215.07684 67.485497 -21.348 -0.22435012 0.20626827 -0.076197237 0.31414264
214.45897 67.023689 -21.466 -0.24842393 0.053128853 -0.041705132 0.25744212
217.05344 70.060631 -10.522 -0.33295947 0.075643517 -0.092124701 0.35365367
214.33955 66.315025 -21.488001 -0.31160992 0.078357443 -0.078525305 0.33076707
213.565 67.096642 -21.926001 -0.20246294 0.10036173 -0.032720596 0.22832949
217.01909 57.132622 -13.926 0.13128714 -0.15647916 -0.067328602 0.21507019
212.11044 69.128494 -10.772 -0.28045541 0.16079302 -0.088406324 0.33514968
213.54379 66.189499 -21.804001 -0.17146443 0.14179458 -0.034249574 0.22511949
213.10884 61.040344 -12.437 0.056231014 -0.26479343 -0.093715966 0.28646147
212.32413 79.057457 -23.892 0.13660526 -0.13856231 -0.048527122 0.20053776
212.74626 69.451462 -23.288 0.087210171 0.2042052 -0.062758625 0.23074667
212.23535 65.489723 -21.492001 -0.20963128 0.29313594 -0.12771285 0.38234085
211.74637 69.622932 -23.052999 0.087625578 0.19858861 -0.060456067 0.22532335
212.20522 50.034969 -13.826 -0.11384249 0.52915615 -0.44997329 0.70387661
211.55014 65.153099 -21.941 -0.32782146 0.17127334 -0.12193856 0.38944894
212.21268 56.047672 -13.561 0.19876088 -0.097383015 -0.079265684 0.23510081
211.08121 49.656422 -13.866 0.06692595 0.39021015 -0.1628179 0.42808026
209.40363 68.786629 -10.776 -0.27419245 0.43767408 -0.45893148 0.69091111
210.12164 78.050766 -23.993999 0.39909458 0.18152821 -0.33300301 0.55056334
208.53174 75.961205 -12.87 0.32198626 0.28008205 -0.28937298 0.51561403
208.50836 76.109375 -12.818 0.32219189 0.27993354 -0.28938311 0.51566756
211.16422 55.059963 -13.691 0.29831514 -0.060265087 -0.14651901 0.33777452
210.32771 65.02903 -21.865999 0.090441965 0.37024173 -0.19543406 0.42831433
209.04028 59.031918 -12.486 -0.05442746 -0.19000937 -0.041264951 0.20191261
209.60521 77.779755 -23.625999 0.21580765 0.076613002 -0.072955042 0.24034336
210.00885 54.001534 -13.468 0.076928258 -0.27942216 -0.1215657 0.31428158
210.01364 55.245316 -13.593 -0.39172447 0.37746492 -0.42653203 0.69127232
210.60474 49.455738 -13.782 -0.23334542 0.27907488 -0.10029334 0.37734815
208.04346 78.257912 -23.938999 -0.14415194 0.39431667 -0.76679558 0.87420869
209.1541 67.402367 -23.106001 -0.26175672 0.42027965 -0.35979459 0.6120488
209.9462 53.212566 -14.497 -0.048507415 0.5146293 -0.38497424 0.64451647
207.64709 78.169792 -23.893 -0.1433865 0.39364037 -0.76682317 0.87380213
208.91267 67.344536 -23.172001 -0.26137125 0.42020106 -0.35982659 0.61184889
207.72455 74.486046 -12.79 0.29413494 0.37256932 -0.5196138 0.70379096
212.20837 52.797722 -13.991 0.13917777 -0.1574343 -0.072914869 0.22242434
207.03716 48.257545 -13.999 -0.084080324 0.30179885 -0.073668391 0.32183704
205.03848 72.002258 -12.3 -0.24241227 -0.060090527 -0.050754368 0.25485405
207.07597 48.123665 -14.531 -0.14323954 0.21240926 -0.038869172 0.25912559
206.00819 47.267872 -14.51 -0.34844396 0.11901718 -0.11019996 0.3843466
206.4971 50.104385 -14.084 -0.066268124 0.53407484 -0.5042876 0.73751843
205.95816 66.365982 -23.570999 0.38359287 0.23898101 -0.40003598 0.60355961
220.00375 62.48333 -12.97 -0.055369031 -0.29802561 -0.10284469 0.32009691
205.12611 59.042927 -12.355 -0.20009431 -0.1091419 -0.041620225 0.23169361
205.62402 67.117653 -24.049999 0.17292809 0.28858832 -0.15921998 0.3722074
204.30861 67.580292 -12.697 0.45037305 0.075494699 -0.37947711 0.59374928
205.5094 46.719437 -13.926 0.23610321 -0.23619227 -0.18553692 0.38204119
219.03062 62.447002 -12.824 -0.0046434477 -0.31736416 -0.12188938 0.33999795
204.07797 60.341961 -12.36 -0.4014082 0.16389315 -0.19772562 0.47653428
203.14453 71.276291 -12.372 0.10217366 0.22401291 -0.075989634 0.25767356
203.1317 69.108543 -12.56 -0.1805521 0.091096826 -0.034309775 0.20512155
203.15569 70.021362 -12.449 -0.018575102 -0.2307163 -0.051182628 0.23705423
203.14845 68.016037 -12.422 -0.22044717 0.061439984 -0.043654293 0.23297536
203.06306 66.257782 -12.394 -0.21120264 0.076425195 -0.041557819 0.2284172
218.34311 63.047218 -12.102 0.10830122 -0.25874916 -0.10747471 0.30038491
218.00372 62.224228 -12.957 -0.17191413 0.41367072 -0.76679021 0.88805693
202.07092 71.045052 -12.656 -0.39534312 0.040189635 -0.16990492 0.43217945
202.01199 70.000793 -12.665 -0.30907649 -0.0041343807 -0.089459091 0.32178921
218.07753 60.220478 -12.994 0.18219781 -0.33682978 -0.23014057 0.44678298
203.14857 60.017838 -12.787 -0.33058456 0.011201646 -0.097319335 0.34479368
202.00122 68.152496 -12.486 -0.28627971 0.2035884 -0.12978667 0.37449819
203.49612 63.976707 -23.976 -0.23175046 0.44928792 -0.51240015 0.71980679
202.02884 67.016136 -12.497 -0.062246636 -0.2411679 -0.059283078 0.25602946
203.07945 59.226147 -12.789 -0.12735176 0.40492755 -0.20741668 0.47244734
202.14101 66.112854 -12.666 -0.22836827 -0.036510039 -0.043135226 0.23525667
204.18195 46.018345 -14.441 0.084175676 -0.18917654 -0.070320308 0.21867386
202.04401 65.410706 -12.666 -0.38075399 0.042385243 -0.14953068 0.4112536
203.16704 65.440422 -23.912001 0.21075539 0.031421252 -0.065258622 0.22285381
202.06711 64.001038 -12.45 0.24553584 0.30705249 -0.78133196 0.87467062
203.48489 64.066002 -23.983 0.4552938 -0.097866185 -0.4741236 0.66457766
201.07265 71.021126 -12.735 -0.20014232 -0.010696024 -0.032783777 0.20309144
217.05423 62.022644 -12.812 0.1137469 -0.30036783 -0.14268816 0.35145283
217.1142 61.677673 -12.987 0.080145933 -0.23747194 -0.083806783 0.26427233
217.06418 60.001518 -12.96 -0.11125511 0.49350715 -0.36910748 0.62623268
217.07489 59.922237 -12.98 -0.14396128 0.5019877 -0.55466986 0.76182353
201.50702 64.00502 -12.637 0.11585686 -0.35940808 -0.17884314 0.41782993
216.14687 61.326828 -12.98 0.030162852 -0.27463248 -0.095056772 0.29217905
216.07314 59.64439 -12.991 -0.073041439 -0.21150523 -0.051156968 0.22953551
200.32062 63.215019 -12.956 0.31797567 0.35223928 -0.41908789 0.63310009
200.10695 64.047058 -12.864 0.39069089 0.15657364 -0.27225274 0.50127465
215.19763 62.035572 -12.482 0.014826853 -0.29679146 -0.10779521 0.31610888
201.31691 52.924248 -12.935 -0.22744264 0.15337938 -0.05633831 0.28005248
215.23346 59.410019 -12.984 -0.20669626 -0.15122604 -0.051441282 0.2612257
214.46735 62.008495 -12.334 0.099518642 -0.28908038 -0.12536791 0.33043689
213.37138 62.016369 -12.073 0.0076445453 -0.23158228 -0.063033164 0.24012907
195.11433 70.0075 -12.65 0.1676978 -0.11405459 -0.043860734 0.20749642
211.34109 61.021954 -12.086 0.071427345 -0.21676713 -0.068122 0.23818158
193.05818 70.347839 -12.881 -0.010786781 -0.22146076 -0.043690741 0.22598696
193.43945 69.001755 -12.475 0.15333273 0.18221878 -0.069744378 0.24815094
193.06349 68.026489 -12.894 0.087064497 -0.20797072 -0.049349695 0.23079741
209.81842 60.020855 -12.359 0.16552927 -0.28560981 -0.15500739 0.36469191
194.64128 61.054577 -12.998 -0.084153928 0.23461457 -0.062618375 0.25699598
192.32639 68.055794 -13.844 0.1358833 0.44023061 -0.65134025 0.79781663
191.3508 68.102928 -12.866 0.31802976 0.10317324 -0.86442733 0.92683452
204.01591 69.31987 -12.315 -0.19727948 -0.060730737 -0.03207773 0.20889327
190.57391 62.064987 -12.987 -0.017826548 0.33928257 -0.13037947 0.36390829
193.34581 52.003452 -12.976 -0.24750651 0.28257304 -0.1418083 0.40151787
305.47177 -70.852417 -19.726999 -0.19129686 -0.11108926 -0.046339214 0.22601467
186.29079 63.386734 -12.73 0.14042163 -0.17204851 -0.047672093 0.22713774
188.59801 54.019295 -12.981 -0.12737904 0.18333411 -0.046419293 0.2280166
183.00055 66.320732 -13.036 0.011737335 0.2659018 -0.078930944 0.27761778
200.12161 54.048248 -12.489 -0.072258785 0.44423386 -0.22964406 0.50527364
183.10823 62.025875 -12.696 0.520684 -0.0062045655 -0.50403428 0.72470748
183.62709 56.036045 -12.841 -0.14364485 0.42245084 -0.26463276 0.51877648
181.30138 67.171021 -13.604 -0.24482298 0.021261405 -0.079480648 0.25827795
198.26004 53.639606 -12.971 -0.26089445 0.1877494 -0.091131717 0.33409691
182.01254 60.548122 -12.977 0.13157512 -0.20265527 -0.057070971 0.24827056
184.23779 50.054596 -12.957 0.029076044 -0.26617989 -0.090337038 0.28259146
198.16263 55.89753 -12.926 0.060385823 -0.31676671 -0.13841721 0.35092294
183.07477 55.599266 -12.871 0.42708459 -0.20182554 -0.68865472 0.8350929
197.52182 55.994648 -12.637 0.058454677 0.51097268 -0.55352223 0.75557721
197.08411 57.010033 -12.13 -0.11632605 0.4621942 -0.70471144 0.85074872
183.22392 50.4669 -12.942 0.26154149 0.18157634 -0.90059066 0.95521593
182.99831 51.574146 -12.882 0.48138157 0.14275876 -0.61932176 0.7972877
182.65277 52.101185 -12.995 -0.12943913 0.17535591 -0.047559738 0.2230832
181.01381 60.28553 -12.981 0.087927915 -0.20791696 -0.050505042 0.23132561
181.192 59.087677 -13.46 0.36235785 0.02350812 -0.13422745 0.38713416
183.15004 31.049313 -13.998 -0.2458702 0.46153894 -0.3962903 0.65613747
182.1326 49.137589 -12.956 0.17425123 0.13761558 -0.041462153 0.22587749
181.8922 49.074036 -12.99 -0.18945301 0.1908609 -0.074811518 0.27913633
181.15285 47.234898 -12.848 0.042635225 0.44478065 -0.76472044 0.88568896
180.87193 47.396774 -12.928 -0.21510166 0.21981272 -0.10054091 0.32356581
179.15695 61.626904 -13.787 0.51091653 -0.046907399 -0.39596993 0.64809585
224.3208 72.033981 -19.837 0.10356261 0.2057351 -0.065404892 0.23943673
182.42908 61.003105 -13.048 0.19025648 -0.21519779 -0.082236439 0.2987816
177.0798 60.62352 -12.986 0.50222445 -0.0051694559 -0.3517344 0.61316651
176.13548 61.032459 -13.422 -0.17847282 0.105115 -0.054987162 0.21430188
175.51886 68.295921 -13.85 0.026875013 0.48090753 -0.61255574 0.77924252
222.04861 76.203033 -10.638 -0.30843085 0.24500363 -0.14085227 0.41832489
221.01337 74.216072 -10.519 -0.25241476 -0.041334581 -0.042546898 0.25929135
221.27568 76.003075 -10.952 -0.20642599 0.19452667 -0.061081022 0.29014343
172.19768 64.020218 -14 -0.17173027 0.20776455 -0.090930521 0.28447452
216.01543 69.528717 -21.900999 -0.25048548 0.1827559 -0.076692909 0.31941274
197.98328 87.123177 -12.967 -0.19994847 0.083658062 -0.042645305 0.22089972
215.04297 68.0467 -21.774 -0.12014817 0.25970158 -0.075778037 0.29601151
215.746 69.130623 -21.790001 0.10078515 0.47745767 -0.47890514 0.68372041
170.41066 57.665638 -13.978 -0.17088611 -0.12556541 -0.057053894 0.21959937
169.54558 58.987614 -13.985 0.13441584 0.45950755 -0.66318744 0.81794399
170.15411 51.145947 -14.302 0.063856497 0.18778886 -0.034642935 0.20135152
169.42632 52.041332 -13.999 0.00056271814 0.2066201 -0.041705221 0.21078783
217.27155 74.105537 -10.979 -0.15368134 0.17904308 -0.041723847 0.23961481
214.58504 68.070091 -21.832001 -0.073293641 0.27953437 -0.08363387 0.30084223
168.15877 44.146965 -14.451 0.22645317 0.22285178 -0.90446401 0.95864445
214.08209 72.121506 -10.983 -0.1890889 0.12127232 -0.035109997 0.2273638
213.96399 72.052277 -11 -0.19196276 0.068693705 -0.025692374 0.20549606
213.43506 71.071121 -10.965 -0.23609211 0.18400879 -0.07460618 0.30848792
212.44865 70.066063 -10.954 -0.29692701 0.29347974 -0.18267819 0.45570531
208.01967 76.009727 -11.972 0.24781615 0.088367313 -0.093844295 0.27933559
208.03938 75.205002 -11.749 -0.20090397 -0.058870856 -0.032082051 0.21179575
209.46527 69.082642 -10.968 -0.27416223 0.43738824 -0.45893288 0.69071907
212.01733 70.012779 -11.571 -0.22481936 0.082420103 -0.04022193 0.24280572
194.36545 70.102081 -11.896 0.0065317219 0.48197085 -0.54698282 0.72906023
193.00323 68.258224 -11.959 0.32422888 -0.28663999 -0.24482664 0.4972192
230.30992 80.164665 -13.912 -0.038105801 0.46131831 -0.27446222 0.53814143
192.17403 67.954018 -11.708 0.0035466063 0.29113528 -0.10198534 0.30850175
210.30763 68.423828 -11.535 -0.16074437 0.12479062 -0.029464036 0.20561999
192.10887 68.164146 -11.731 0.0037862626 0.2911745 -0.10225624 0.30863127
229.06836 82.117813 -13.985 0.4267329 0.13596264 -0.5990684 0.74797714
191.9485 67.990097 -11.774 -0.2904202 0.042796977 -0.093585789 0.30811325
229.1516 83.010201 -13.704 0.45068017 -0.031352177 -0.51253062 0.68321538
209.11601 68.21891 -11.54 0.41857898 -0.037880607 -0.69815624 0.81490213
191.88052 68.241249 -11.931 0.40170872 0.10857042 -0.76542115 0.87122154
228.13899 81.178139 -13.982 -0.38568327 0.33463228 -0.31667042 0.60084146
227.60316 81.401627 -13.994 0.056147855 -0.20669231 -0.06033355 0.22251838
227.23586 82.167892 -13.524 0.37056389 0.044970054 -0.22599709 0.43636522
227.24283 83.028091 -13.685 0.31854793 -0.052117884 -0.16278455 0.36150777
226.07553 80.640099 -13.071 -0.12957343 0.28089795 -0.084387094 0.32064641
36.075779 -56.54805 -17.159 0.49535435 0.053186782 -0.5503577 0.74236
183.16655 74.584175 -14.153 -0.093431085 0.19357499 -0.057804614 0.22258037
181.03151 75.107292 -14.506 -0.0240984 0.26992008 -0.088027209 0.28493223
179.12164 74.177361 -14.746 -0.054592185 0.23741445 -0.071093619 0.25377199
197.46774 76.379524 -14.4 0.10407707 0.28078589 -0.11971405 0.32249683
184.13469 76.256241 -14.804 -0.23006144 0.28416082 -0.18068147 0.40782523
183.91867 76.022163 -13.948 -0.29815313 0.044504791 -0.11460921 0.32250774
192.05185 75.447647 -13.823 0.43468419 -0.18989345 -0.64868104 0.80361491
192.02824 76.324165 -13.611 -0.19727436 -0.040843148 -0.035703421 0.20459734
191.01183 75.002144 -13.632 -0.17093608 0.45294622 -0.46664268 0.67240971
179.05737 72.170517 -14.305 -0.051900622 0.20318311 -0.052526176 0.21618523
179.09789 73.049805 -14.637 -0.17405409 0.22612557 -0.10479394 0.30398908
196.05211 38.303795 -13.858 -0.28187358 0.45155743 -0.62679434 0.82233077
196.03548 40.363945 -13.651 0.24649149 -0.2050654 -0.15685266 0.35694906
195.17015 40.17503 -13.677 -0.15593651 0.29824126 -0.090081066 0.34839439
195.20308 39.194981 -13.24 -0.13705504 0.25772589 -0.061373621 0.29828417
195.32335 37.983772 -13.943 -0.034620605 0.54203349 -0.4717139 0.71938366
195.00179 38.154732 -13.966 -0.037100855 0.54203349 -0.48097128 0.7256102
195.26212 38.826832 -12.962 -0.13029662 0.32552144 -0.09965089 0.36451572
195.74715 39.04583 -12.993 -0.13124599 0.32566285 -0.099595934 0.36496732
194.46719 37.948212 -13.281 0.209976 0.37403053 -0.20348561 0.47475797
194.49956 38.459457 -13.892 0.24947511 0.45784491 -0.56209081 0.76668501
194.01204 39.108864 -13.52 0.01750017 -0.20088337 -0.062435359 0.21108899
193.10634 38.569122 -13.744 0.10169999 0.36264461 -0.86212867 0.94080806
193.01479 39.041264 -13.431 -0.0084804902 0.52750409 -0.3807312 0.65060645
183.16322 80.012764 -13.998 0.022955608 0.48489991 -0.49261162 0.69160759
316.30872 -93.244843 -18.979 0.25098151 -0.19730559 -0.12235239 0.34189373
192.71646 38.871658 -13.431 0.16894682 0.50490844 -0.47418046 0.71296751
42.301342 -88.957275 -16.634001 -0.058189645 0.49073729 -0.59835863 0.77604264
313.28577 -90.595573 -18.995001 -0.32968488 -0.0054494566 -0.11438483 0.34900674
189.22 40.050106 -13.783 -0.33432171 0.036320176 -0.11842021 0.3565298
41.845787 -89.018105 -16.482 0.10338532 0.48808193 -0.56833506 0.75625211
189.11899 44.698372 -12.999 0.18556726 -0.19067682 -0.094573557 0.28237745
189.09969 45.037971 -12.951 0.079693325 0.20774446 -0.037985414 0.22572479
6.2140508 -54.996475 -17.058001 0.48766464 -0.056326669 -0.59368384 0.77035707
188.10504 47.058941 -12.981 -0.16302903 0.4992637 -0.54837787 0.75931615
187.98653 44.484894 -12.999 0.48695675 -0.039613955 -0.57064778 0.75122237
187.14998 46.743641 -12.964 0.097091749 -0.27567005 -0.11396188 0.31370065
187.95575 47.067001 -12.957 -0.093768977 0.50896668 -0.3950153 0.6510582
186.33794 48.083046 -12.949 0.11585359 0.17292775 -0.034755409 0.21103081
201.07266 41.3978 -13.995 0.29637724 -0.21781111 -0.22520819 0.43127704
185.29202 47.701809 -12.915 0.17100409 -0.12987345 -0.053586602 0.22131661
204.00049 98.43663 -13.017 -0.15424356 0.156313 -0.035718441 0.22248739
185.35985 34.035011 -14 -0.02185997 0.52799106 -0.40869623 0.66804564
183.23758 47.610195 -12.829 0.4916431 0.084507853 -0.61463135 0.79159731
183.18892 48.007351 -12.765 0.45513237 0.24812874 -0.4779416 0.7050826
191.81758 96.218407 -13.994 -0.1736806 0.092686161 -0.035688311 0.20007332
183.12912 46.287296 -12.927 0.14580871 0.16093312 -0.038392097 0.22053029
182.87267 48.119545 -12.982 -0.17393483 0.23994775 -0.088533431 0.30929989
181.13409 44.631229 -12.946 0.21786229 0.2501756 -0.8938942 0.95346659
61.045002 46.898037 -14.552 -0.18865749 0.17215817 -0.065609545 0.26369432
60.585438 48.078217 -14.915 0.02292371 0.39483327 -0.1758455 0.43282843
60.764973 46.40736 -14.495 -0.18863995 0.17206287 -0.065612197 0.26362023
171.18326 63.146809 -14.339 -0.20292811 0.12739038 -0.073476702 0.25061315
220.02083 71.027275 -9.9870005 -0.19015753 0.16460808 -0.043255478 0.25519943
217.32283 70.008408 -9.6999998 -0.01128659 0.41477403 -0.21344861 0.46661034
224.40231 57.005363 -17.198 -0.4119086 0.24311358 -0.22412899 0.52821088
184.35106 33.805462 -13.875 0.077680863 -0.21729034 -0.0757671 0.24287869
-2.7540932 -55.892399 -17.049999 0.43076262 0.024407402 -0.24710652 0.49720597
-4.7273073 -54.817913 -17.058001 0.49676552 0.024806425 -0.44842124 0.66968125
236.02518 99.006073 -13.998 0.10828121 0.45724538 -0.28884864 0.55157202
-5.7788963 -55.883659 -17.059999 0.49263453 0.062282 -0.56038928 0.74873489
236.01559 104.30286 -13.882 0.26036954 -0.23390761 -0.21318659 0.40982139
235.00879 100.11913 -13.788 0.2624982 0.32173613 -0.23263386 0.47596002
235.10869 103.92798 -13.667 -0.18894333 0.50393134 -0.39237675 0.66603744
234.02786 101.02031 -13.791 0.25622451 0.20976214 -0.13945919 0.3593049
234.95143 103.90175 -13.717 -0.016508263 0.53317344 -0.46095827 0.70500278
234.10722 100.03697 -13.893 0.14354108 0.14920217 -0.048876852 0.21273053
233.11595 102.0766 -13.644 0.23723897 0.038570724 -0.083245277 0.25436157
231.11465 102.15647 -13.732 0.011661962 0.25345659 -0.051675498 0.2589336
35.303539 28.265596 -16.535 -0.14568375 -0.13248855 -0.043418169 0.20164847
231.11168 101.30579 -13.316 -0.15075457 0.24793603 -0.061285526 0.2965723
231.29733 99.027031 -13.035 0.38686612 0.038504876 -0.23298383 0.45324332
234.1718 94.621758 -13.994 0.45457193 0.037483554 -0.4156628 0.6171031
231.50906 98.47213 -13.629 0.15920454 0.18996666 -0.066630721 0.25665751
230.09836 99.495537 -13.248 0.4462133 0.029563807 -0.36652064 0.57820213
232.0909 95.015846 -13.417 0.18411413 0.27155608 -0.87146723 0.93117982
233.14491 93.028313 -13.551 0.24305114 0.17071253 -0.11227617 0.31752568
234.03391 91.435654 -13.982 0.18351699 -0.10658657 -0.068780988 0.22309193
232.16249 93.196327 -13.573 0.13126644 0.15852898 -0.047868907 0.21131434
231.20538 94.047791 -13.542 0.22561958 0.069040425 -0.075437695 0.24771278
228.10684 98.982849 -13.012 -0.010118308 0.19999443 -0.02905488 0.20234707
233.04623 90.008049 -13.995 0.21625572 -0.12924133 -0.094914556 0.26921856
231.33531 93.354729 -13.338 0.24335921 0.26693934 -0.16497931 0.39711267
233.04921 89.948128 -13.99 0.21622047 -0.12931377 -0.094914496 0.269225
231.42926 92.037743 -13.195 0.22655249 -0.16350545 -0.11616486 0.30257946
229.89824 95.012253 -13.045 0.19899082 -0.038970001 -0.061338514 0.21184528
230.9707 93.474998 -13.08 0.12981619 0.22296074 -0.072293997 0.26793686
-11.872963 -61.831127 -17.069 0.023307055 0.4727098 -0.33305305 0.57872456
232.10393 89.039688 -13.791 0.16128129 -0.13327859 -0.066419393 0.21951395
231.28421 91.055298 -13.41 0.20092753 -0.053781658 -0.065893829 0.21818876
229.88765 94.662415 -13.138 0.22627731 0.10569965 -0.081307292 0.26264942
232.08914 88.819275 -13.986 0.13221286 -0.19796136 -0.081608534 0.25165233
-12.830997 -61.784779 -17.048 0.02178888 0.35734844 -0.14894673 0.38775998
230.69945 91.033768 -13.029 0.15660194 0.21458046 -0.082805783 0.27825481
224.92247 100.0132 -13.808 0.36269423 -0.1900259 -0.28476459 0.49874625
224.71262 99.705139 -13.009 -0.03139228 0.35315397 -0.1177555 0.37359011
228.02914 80.074524 -11.933 0.15984118 0.29478905 -0.14216107 0.36422458
229.25674 88.041267 -13.397 0.089967847 -0.1854879 -0.059624195 0.21460433
229.45091 78.014458 -11.787 0.36132964 -0.25192568 -0.39395046 0.59095061
228.15355 79.110176 -11.683 0.28236264 0.2014315 -0.17557058 0.38875228
228.41286 78.078392 -11.424 0.35193449 0.042425811 -0.79212999 0.86782932
228.30832 87.094948 -13.377 0.20531797 -0.057809792 -0.070042431 0.22450699
229.01805 74.088905 -12 0.25986677 -0.20420034 -0.17151436 0.37235159
227.4525 84.086182 -13.51 0.29569185 -0.0058571268 -0.13325769 0.32438493
228.17026 72.5159 -11.967 0.28440899 -0.25760102 -0.24373737 0.45459285
227.00029 71.793518 -11.826 0.15885153 -0.37884369 -0.26555806 0.48915994
225.99893 72.224823 -11.192 0.26513234 -0.21324797 -0.1832417 0.38645488
225.11839 69.002609 -11.906 0.11911109 0.36508104 -0.19312775 0.42984876
225.03505 68.714615 -11.995 0.11976976 -0.1986133 -0.076599777 0.24425308
45.115986 -7.9833999 -15.995 0.4355965 0.20481274 -0.35255432 0.59664655
217.23776 90.348648 -13.121 0.3952145 -0.26068741 -0.49715161 0.68652177
45.136425 -8.6733866 -15.727 0.47032547 -0.10344372 -0.36071074 0.60168004
224.09261 67.492462 -11.994 0.23780254 -0.20663905 -0.15377671 0.35056672
44.731899 -7.6565557 -15.981 -0.24112104 0.308247 -0.18688533 0.43368384
224.76266 85.440582 -21.997 0.091711894 0.38869083 -0.19713649 0.44536999
44.643162 -8.9270353 -15.585 0.029287053 0.20582893 -0.043457836 0.21239555
45.175514 -10.193707 -15.038 0.18162194 0.25232422 -0.10498568 0.32814026
223.22221 66.871254 -11.993 0.17819116 -0.32813019 -0.21034464 0.42856315
44.672962 -9.4763184 -15.344 0.022736996 0.20744957 -0.043832123 0.21324529
44.995445 -10.131053 -15.077 0.18135384 0.25235945 -0.104891 0.32798874
221.06837 67.024452 -11.777 0.025726318 -0.27757061 -0.094153464 0.29423147
218.45287 81.037857 -13.259 0.45284924 0.01127097 -0.41805202 0.61641461
29.162085 -11.8943 -15.671 0.26478419 0.039689224 -0.076315284 0.27840602
230.3284 79.044777 -13.879 0.010080356 0.29273048 -0.08688122 0.30551773
218.50269 80.389771 -13.307 0.4520081 0.011763331 -0.41798013 0.61575735
220.19212 67.005211 -11.449 -0.01566156 -0.30257004 -0.10657763 0.32117397
29.232824 -12.134084 -15.693 0.26475081 0.039725307 -0.076288581 0.27837211
220.11137 66.166855 -11.819 0.070010334 -0.18925549 -0.054424495 0.20900027
229.30751 79.094551 -13.706 0.33526233 0.091701522 -0.18810248 0.39521202
220.38345 83.012299 -21.202999 0.18669209 0.13326533 -0.072458208 0.24054891
220.30548 84.170364 -21.540001 -0.08018551 0.29316998 -0.091191173 0.31732348
219.43764 67.068924 -11.237 0.16870965 -0.17053789 -0.086040944 0.25485125
228.60988 80.702705 -13.827 0.26279664 0.19442308 -0.15120506 0.36017409
219.30679 66.019119 -11.552 0.14504191 -0.17945306 -0.078029096 0.24357566
28.818535 -12.429095 -15.412 0.26472887 0.039735373 -0.076288611 0.27835271
219.13071 82.532524 -21.225 -0.29949033 0.18879277 -0.11225033 0.37139913
228.6118 79.132462 -13.021 0.30508724 0.15595226 -0.17595914 0.38517651
219.29007 83.000656 -21.047001 -0.34971553 0.19519241 -0.15487644 0.42940393
218.60892 66.028473 -11.329 0.18519838 -0.21096438 -0.1154865 0.30354825
218.46262 65.029114 -11.572 0.20170733 -0.10793522 -0.083067864 0.24338473
218.17085 82.629662 -21.659 -0.2112101 0.20385838 -0.074216396 0.30278048
219.12843 72.643692 -22.892 0.28710184 -0.27057508 -0.25351316 0.4689427
218.46249 74.845253 -22.790001 -0.061753105 0.22011946 -0.046295941 0.2332581
214.08301 73.087822 -11.469 -0.17918144 0.12709504 -0.034080297 0.22230746
218.74973 73.063278 -22.854 -0.18758374 0.11645657 -0.029492319 0.22275455
217.10144 82.94059 -21.375999 0.010047812 0.24581242 -0.065207928 0.25451282
214.01904 72.168068 -11.25 -0.18892947 0.12119349 -0.035124004 0.22719133
218.59569 72.490471 -22.908001 0.16994792 -0.35658514 -0.23125032 0.45772478
217.46236 75.02562 -22.900999 -0.10099212 0.46130148 -0.30205595 0.5605678
216.12604 83.101967 -21.489 0.11194976 0.2844744 -0.11527261 0.32672039
217.01271 62.445072 -12 0.09030208 -0.36700591 -0.2022458 0.42866206
217.52713 74.727249 -22.955999 -0.2791723 0.035509996 -0.055436641 0.28682983
207.97546 96.01458 -13.05 -0.0055645676 0.51305234 -0.49547285 0.713265
216.4481 82.563454 -21.239 0.050310422 0.29019335 -0.10063207 0.31123966
218.02017 70.255508 -22.898001 0.37451002 0.11870193 -0.26451638 0.47362098
213.15071 72.096443 -11.519 -0.2244685 0.071175322 -0.038275152 0.23857288
217.73445 73.568184 -22.795 -0.026928015 0.45695513 -0.28644469 0.53998488
206.68788 98.065079 -13.01 -0.039486401 0.51576161 -0.42536694 0.66970611
215.19586 83.609741 -21.368 0.18931293 0.27356711 -0.14614913 0.36337024
216.06096 62.277206 -11.969 -0.017572876 -0.34864768 -0.15066034 0.38021383
216.13867 63.084011 -11.492 -0.14561608 -0.21997595 -0.062623173 0.2711367
213.0386 71.602646 -11.688 -0.069188744 0.25304723 -0.067154706 0.27079463
205.19647 100.66582 -13.075 -0.14384842 0.25198048 -0.063658804 0.29705045
215.18808 82.319412 -21.031 -0.19920133 0.15811248 -0.054076046 0.2600095
214.36882 85.016655 -21.747 0.012386773 0.23184481 -0.059768438 0.23974511
215.08345 63.118671 -11.631 -0.046709266 -0.27879995 -0.088339359 0.29616719
217.46361 70.195168 -22.532 0.1731246 -0.37082157 -0.2513262 0.48025578
215.00142 62.17334 -11.987 -0.0013668612 -0.26622453 -0.083474934 0.27900794
212.04504 69.754257 -11.604 -0.19084957 0.2719878 -0.10559088 0.34864071
216.20137 70.271881 -22.363001 -0.090322867 0.26867118 -0.076902688 0.2936945
216.11737 69.133812 -22.572001 0.1030452 0.47644699 -0.47902173 0.68343389
215.47017 72.478416 -22.989 0.21745683 0.21624343 -0.86308539 0.91595036
211.00523 69.101318 -11.333 -0.22693533 0.12411126 -0.051108092 0.26365751
215.68068 71.013153 -22.877001 -0.22175032 0.22720088 -0.086742222 0.32911649
226.08553 80.193298 -11.808 -0.042749453 0.39962217 -0.81177551 0.90581727
211.34309 67.408623 -11.118 -0.22052592 0.049204011 -0.033258289 0.22838308
215.12975 69.586494 -22.518999 -0.21699779 0.17660245 -0.060893357 0.2863293
215.06685 70.193985 -22.771 -0.18058039 0.16452253 -0.044285268 0.24827026
209.08525 75.112228 -11.486 -0.11077233 -0.20708799 -0.048062891 0.23972064
215.54536 68.878914 -22.149 -0.17219216 0.2358202 -0.073468864 0.30109629
209.01752 74.272163 -11.948 -0.050681107 -0.24606983 -0.060856968 0.25850049
211.72081 62.001049 -11.527 0.25182727 -0.090375461 -0.10855088 0.28873515
214.52225 69.13205 -22.627001 -0.3092812 0.2823365 -0.17793512 0.45500514
203.1449 98.67981 -13.481 -0.15034638 0.23691314 -0.063788772 0.28775141
207.35094 77.845802 -13.077 -0.19335429 0.40480044 -0.2750701 0.52622509
211.01605 60.654835 -12 0.075443089 -0.24784267 -0.087400973 0.27341649
211.03864 61.020298 -11.859 0.075921394 -0.24812806 -0.087586462 0.27386671
214.54582 68.620148 -22.142 -0.14061457 0.27523014 -0.090510547 0.32205006
225.03563 80.189926 -11.851 -0.097716726 0.42000428 -0.21556383 0.4820995
209.04132 69.035561 -11.723 -0.20127365 0.13096222 -0.045190215 0.24434471
208.12787 74.174278 -12 -0.30940112 -0.039351128 -0.085039109 0.32327884
210.03722 60.308914 -11.996 0.10090977 -0.30056548 -0.13543805 0.3447693
210.23425 61.137375 -11.52 0.12684417 -0.23647298 -0.098018736 0.28568617
209.03696 60.045074 -11.731 -0.1957992 0.4373796 -0.71151274 0.85783952
208.00305 66.274353 -11.492 -0.2277761 0.13093384 -0.055145383 0.26845229
224.08461 79.518272 -11.458 -0.10447004 0.39808926 -0.18824199 0.45257497
224.10608 78.858322 -11.7 0.44280112 0.050671335 -0.57631546 0.72854644
208.09633 59.341179 -11.984 -0.0071563236 -0.32664213 -0.13239127 0.35252482
208.07315 60.001984 -11.435 -0.036052167 0.3634156 -0.8534463 0.9283002
214.7495 91.060005 -13.079 -0.16416688 0.47130406 -0.59772944 0.7786904
207.08885 62.152203 -11.73 -0.32988441 -0.015343838 -0.093385905 0.34319103
207.25883 63.026215 -11.32 -0.085895509 -0.18595873 -0.039020896 0.20852174
207.15419 64.221809 -11.239 -0.14889194 0.13379152 -0.029372722 0.20231594
207.04773 65.145752 -11.524 -0.18386385 0.20835175 -0.068301439 0.28614935
207.6839 57.892609 -11.981 -0.10404573 0.50910628 -0.44377762 0.68333977
207.32732 59.462288 -11.963 -0.17999111 -0.24746963 -0.094203323 0.32017541
207.07133 60.079872 -11.679 -0.16230643 -0.13632727 -0.036628723 0.215105
211.0289 65.019165 -22.115 -0.11309488 0.20095859 -0.046238065 0.23518667
211.21951 66.022377 -22.18 -0.2921901 0.057465918 -0.066314399 0.30508193
211.1075 67.016884 -22.818001 0.19061658 0.058966082 -0.062163234 0.20898791
201.08826 95.746498 -13.582 -0.16800475 0.27739358 -0.10385138 0.34052593
223.16702 78.097633 -11.585 -0.21642359 0.21114337 -0.071826637 0.31077284
206.18137 64.068214 -11.684 -0.22069398 -0.059925258 -0.038801044 0.23195343
205.59064 73.033958 -11.984 -0.041591097 0.26130167 -0.078623146 0.27602533
206.48238 58.078678 -11.982 -0.074069329 0.50750118 -0.57524753 0.77068377
210.2486 65.311729 -22.431999 0.02663482 0.43765253 -0.2761144 0.51815856
210.73447 66.339577 -22.525 -0.17554045 0.24588884 -0.084944934 0.31383342
210.22682 67.415878 -22.406 0.20501535 0.12310292 -0.084236503 0.25353777
1.4310896 9.0567732 -16.555 0.47827819 0.047314636 -0.63911366 0.79965925
205.07462 62.002209 -11.732 -0.11820225 -0.16149965 -0.034712911 0.20312287
205.09099 63.329609 -11.653 -0.055647016 -0.33030987 -0.1263777 0.3580119
205.11346 64.090469 -11.795 -0.14123173 0.20322321 -0.054798067 0.25347367
271.12521 16.071644 -19.889999 0.33029544 -0.015052869 -0.13777068 0.35819328
205.48221 58.685963 -11.946 -0.02921484 -0.22948921 -0.06111455 0.23927765
209.13286 67.329231 -22.844 -0.26158348 0.42072448 -0.35981616 0.612293
204.83112 72.090935 -11.953 -0.24198543 -0.060153477 -0.050776452 0.25446737
200.00906 90.434555 -13.218 -0.23628747 0.18184365 -0.086216003 0.31037411
204.64609 58.564274 -11.984 -0.13168608 -0.16248694 -0.040293545 0.21299483
204.043 62.027122 -11.97 -0.21146284 0.078990817 -0.038183361 0.22894116
204.11641 63.200047 -11.948 -0.091079384 -0.25997093 -0.077246875 0.2860899
203.06978 71.119141 -11.971 -0.066875666 0.45593438 -0.32278877 0.56261986
199.05392 90.002838 -13.347 -0.16881013 0.12787306 -0.039223224 0.21537605
199.00569 92.029648 -13.606 -0.24799767 -0.15085259 -0.078746319 0.30076623
221.00871 75.357635 -11.079 -0.16931796 0.16850159 -0.039388984 0.24210089
203.11411 58.945026 -11.978 -0.076316766 0.50111443 -0.40633985 0.64965528
203.10306 59.024261 -11.952 -0.076112106 0.50097305 -0.40635645 0.64953262
203.65981 60.070286 -11.959 -0.36092916 0.060751323 -0.12475324 0.38668326
199.00243 84.013939 -13.12 -0.19254379 -0.12250242 -0.042231679 0.23208503
203.28839 67.21312 -11.994 -0.28340614 -0.03133557 -0.071097642 0.29386362
203.37144 68.264412 -12 -0.21647547 0.074476451 -0.044042915 0.23312689
208.89442 67.241737 -22.958 -0.26131928 0.42053363 -0.3598361 0.61206073
203.62141 69.470612 -11.962 -0.23561986 -0.013334537 -0.04532817 0.24031056
202.84506 58.9785 -11.932 0.13413201 0.46171564 -0.35930797 0.60022908
198.09196 76.759613 -13.115 -0.27374735 -0.024032414 -0.070837826 0.28378367
202.8251 59.117069 -11.992 0.13436875 0.46161479 -0.35932535 0.60021484
202.44405 63.215199 -11.994 0.14038019 0.27271226 -0.88204694 0.93385512
198.07845 81.326347 -13.004 -0.068757191 0.20200177 -0.055504084 0.22048348
202.08606 64.145401 -11.996 0.12697005 0.35551351 -0.18634266 0.42099267
198.07391 82.036995 -13.622 0.43115762 -0.2345966 -0.55955303 0.74433327
202.67555 65.184402 -11.993 -0.28292599 -0.045722358 -0.071528941 0.29538795
202.81015 66.006432 -11.998 -0.28399846 0.064903803 -0.076226264 0.301128
202.10594 67.696541 -11.913 0.47546294 -3.1698495e-05 -0.51628566 0.70186597
198.056 85.326958 -13.394 -0.33090734 0.15322387 -0.14750814 0.39336482
202.07359 68.01506 -11.991 0.42573443 -0.17209984 -0.64280683 0.78998023
198.12852 87.304169 -13.369 -0.20339787 0.074762307 -0.042000085 0.22073537
202.07991 70.612267 -11.904 0.45307779 0.1255579 -0.57407582 0.74202919
202.15369 71.024605 -11.938 -0.1562857 0.43299764 -0.31205684 0.55613995
197.6364 76.491943 -13.969 -0.3296656 0.36228779 -0.42832214 0.65068555
209.02094 78.423935 -13.036 -0.22688353 0.4315154 -0.36560494 0.60938382
201.25072 63.764053 -11.915 -0.063329883 0.49593207 -0.51999044 0.72135246
201.04938 64.056953 -11.903 -0.070781954 0.49473694 -0.5009501 0.70761973
197.02751 83.189392 -13.413 -0.18729158 0.08207871 -0.039855361 0.20833506
201.89957 67.758545 -11.955 0.47592959 0.0027702721 -0.51669014 0.70248514
197.05295 85.048714 -13.564 -0.19580725 0.039127342 -0.034328163 0.20260762
227.08237 63.365086 -14.99 0.203298 -0.15357973 -0.10243714 0.27460912
201.49289 69.417732 -11.94 -0.29009581 0.40266478 -0.5913766 0.7720238
201.80678 70.675499 -11.997 0.34706101 0.17659216 -0.78060865 0.87234509
201.84428 71.024345 -11.994 -0.10357046 0.43624657 -0.29128787 0.53468359
227.24245 66.033821 -14.463 0.20210752 -0.17021815 -0.10793954 0.28543407
186.59334 84.864609 -13.942 -0.1619796 -0.17417736 -0.054473251 0.24401328
188.88028 87.035271 -13.933 -0.20078896 0.11527744 -0.058292419 0.23875321
317.47183 -93.026413 -18.929001 0.058696777 0.49287483 -0.46740416 0.68178993
188.06154 89.446358 -13.892 -0.213551 0.038132492 -0.049679339 0.22254471
317.41922 -92.812798 -18.938 0.19415183 0.28905496 -0.14857951 0.37858099
187.83463 89.580826 -13.951 0.33672899 0.13594492 -0.83416307 0.9097777
189.07111 91.078812 -13.986 0.49023312 -0.059547555 -0.52183443 0.71846062
316.1369 -92.945686 -18.955 0.070094474 0.401582 -0.21519604 0.46096712
200.09111 53.378681 -12.514 0.24196286 -0.17618474 -0.12882915 0.32585892
201.04794 54.016396 -12.978 0.21441391 -0.082551904 -0.075258195 0.24176836
199.03397 53.616341 -12.496 -0.21675368 -0.12865908 -0.064616293 0.26021257
194.12965 52.058872 -12.916 -0.012122919 0.24476504 -0.048656076 0.24984856
206.61389 60.818481 -10.809 -0.26451647 0.45259261 -0.54003769 0.75262851
219.06213 71.060074 -9.0279999 -0.25031599 0.46150371 -0.44243196 0.68657833
220.97696 72.018402 -9.993 -0.2030389 0.094275877 -0.028422058 0.22565582
167.17368 45.203461 -13.994 0.023692518 0.23811987 -0.052743584 0.24503937
221.07864 72.006218 -9.9890003 0.44712946 0.021313947 -0.51863998 0.68510324
184.16582 45.15926 -13.478 0.044653773 -0.31005511 -0.13226697 0.34003335
183.05957 47.092327 -13.431 -0.20333716 -0.045933906 -0.051885277 0.21482088
222.73215 74.188148 -9.9960003 -0.0030984171 0.50196993 -0.56356239 0.75470918
168.98999 49.537086 -13.993 0.52039665 0.029425167 -0.4535189 0.69091094
168.97475 51.158268 -13.983 0.50701016 -0.044053134 -0.61602807 0.79905605
184.05983 49.19405 -13.669 0.00020343158 -0.23017657 -0.067523718 0.23987652
226.11603 73.299942 -9.9980001 0.4322671 -0.030787898 -0.38470531 0.57948327
226.17178 74.025932 -9.9519997 0.12230887 0.20765667 -0.072007209 0.25152692
-34.74865 66.155533 -15.461 0.39200342 0.063281476 -0.8103559 0.9024123
171.09511 52.107246 -13.912 -0.085926898 -0.20686162 -0.060999572 0.23215535
220.92097 70.402779 -21 -0.17870671 0.22919673 -0.067908287 0.29846066
222.45212 70.306328 -20.913 -0.09142974 0.26633748 -0.071984112 0.29064888
180.13892 47.076607 -13.44 -0.19091015 0.15018827 -0.061161935 0.25048748
-28.878332 65.089767 -15.417 0.24689911 -0.011705969 -0.064124078 0.25535876
224.05084 72.041809 -20.073999 0.10373989 0.20375793 -0.06467396 0.2376173
182.13181 49.039948 -13.401 0.20212848 0.038261481 -0.037572086 0.20912085
225.41525 71.890572 -20.009001 -0.13865431 0.18143091 -0.035725474 0.23112443
183.03505 48.228157 -13.456 0.020663772 0.28113359 -0.071794569 0.29089096
183.0804 49.053787 -13.479 0.14378999 0.16463003 -0.039378405 0.22210193
184.07034 50.317165 -13.636 0.031207541 0.5085879 -0.60424632 0.79041076
185.08923 50.253502 -13.582 -0.07939633 0.4355914 -0.76521671 0.8840816
184.00949 56.2803 -13.384 -0.25446984 0.26587379 -0.16440287 0.40307826
200.2403 53.000656 -13.434 0.1703296 -0.094633974 -0.055764169 0.20267561
201.10727 52.195801 -13.454 -0.035359845 -0.24250516 -0.078822762 0.25743368
201.01053 53.276814 -13.767 -0.34910274 0.13061406 -0.1281513 0.39415163
259.80933 -97.303734 -16.954 0.35807344 0.26957539 -0.73109281 0.8575455
260.16541 -97.379288 -16.934 0.49604231 -0.061857525 -0.43387949 0.66191822
261.4357 -96.944992 -16.982 -0.013268982 0.49976125 -0.46041575 0.67964703
261.44467 -97.144798 -16.945 -0.01323346 0.49997255 -0.46041483 0.67980105
261.09506 -100.98895 -17.907 0.2830759 -0.035143014 -0.087073863 0.29824296
190.49158 56.030323 -12.926 0.02105579 0.51601601 -0.51267743 0.72770464
262.27097 -100.99344 -17.848 0.38231525 0.041676376 -0.8232758 0.90867209
190.08774 54.234283 -13.357 0.049419191 0.23123011 -0.049353957 0.24154799
191.04199 56.058254 -12.936 0.01937999 0.51576203 -0.51268959 0.72748649
208.15536 58.201611 -12.495 0.19731911 0.07889457 -0.063945442 0.22191936
229.0341 -60.841827 -18.431999 -0.17259757 0.14057586 -0.048846036 0.22789785
230.55528 -59.987801 -17.987 -0.012511941 0.2073101 -0.042999774 0.21209197
210.18478 53.04789 -13.842 -0.041646764 -0.27949408 -0.10280275 0.30069885
196.65916 56.693932 -12.937 0.18413284 0.3979528 -0.75455374 0.87270993
212.02197 56.019764 -12.914 0.044440009 0.48727807 -0.34183031 0.59687752
197.14064 56.276066 -12.736 0.12946244 0.46215737 -0.67820805 0.83085269
198.07072 57.009476 -13 0.46536851 -0.014988363 -0.61336374 0.77006984
272.29477 -103.89182 -17.975 0.22146949 0.16964759 -0.086216211 0.29199705
272.31717 -104.02026 -17.931999 0.14955127 0.4586035 -0.35316446 0.59783596
205.30324 52.056072 -13.842 -0.18829311 -0.22169459 -0.092054218 0.30508485
206.08519 58.019032 -12.467 -0.11199338 -0.21414201 -0.059644639 0.24891123
209.26059 53.011993 -13.754 0.13615525 -0.1879468 -0.084641218 0.24703519
243.7787 -58.691212 -17.973 -0.20381495 0.13153642 -0.061227053 0.25018218
208.44188 54.977722 -12.483 -0.17523474 0.49708545 -0.39635056 0.65946561
209.07137 55.251839 -12.892 -0.1528535 0.41302902 -0.20361942 0.48519894
209.33456 54.117962 -12.944 -0.12701491 0.32530782 -0.1043025 0.36446807
211.00389 55.005707 -12.801 0.24311177 0.11983884 -0.10204917 0.28961822
-16.896132 -38.964748 -16.924 0.44073334 -0.02123205 -0.7343601 0.85672718
271.51517 -63.908749 -17.917999 -0.043680184 0.48376498 -0.55881959 0.74041599
273.15942 -62.084183 -17.903 -0.053739235 0.48553935 -0.46854091 0.6768803
273.1991 -61.884747 -17.988001 -0.056387179 0.48501191 -0.46393311 0.67353547
274.09338 -61.939316 -17.669001 -0.07442724 0.4825041 -0.45739958 0.66900223
274.99243 -60.990383 -17.945 0.063483663 0.40307382 -0.2300964 0.46844745
275.06644 -61.73679 -17.982 0.17629112 -0.28935763 -0.12848729 0.36237463
275.15851 -60.881615 -17.955 0.063452937 0.4031018 -0.23009643 0.46846741
276.02591 -61.356094 -17.952 0.30927807 0.011453114 -0.11633152 0.33063141
-35.941883 31.252483 -16.341999 0.036654152 0.32493886 -0.1139285 0.34627804
212.7131 63.570442 -20.688 -0.11408998 0.24592003 -0.067024648 0.27925882
212.05251 64.770691 -20.979 -0.27991584 0.2934522 -0.16681299 0.43851298
213.15331 63.578114 -20.632 -0.18353245 0.21046472 -0.063794225 0.28644243
213.23485 64.540802 -20.969 -0.39594132 0.15206917 -0.17027444 0.4570426
213.48154 65.085991 -20.992001 -0.26975238 0.19044259 -0.091136813 0.34255022
214.45963 64.817131 -20.672001 -0.20602134 -0.045144513 -0.024083555 0.21228009
214.75281 66.073532 -20.871 -0.2579942 0.25235164 -0.11855704 0.37986594
214.39952 65.172218 -20.608 -0.18876727 0.11548467 -0.03078261 0.22342193
215.07262 65.158463 -20.49 -0.16126037 0.11972435 -0.024208099 0.20229892
208.4939 85.072296 -11.992 -0.020270562 0.26057068 -0.080076188 0.27334988
208.77946 87.635063 -11.657 0.46255779 0.041028637 -0.37583631 0.5974077
209.27448 86.000267 -11.973 -0.17585757 0.14422289 -0.049666226 0.23279361
217.72981 69.433861 -9.7390003 0.036936421 -0.27045691 -0.089721859 0.28733474
218.09586 70.038208 -9.6040001 0.22816133 0.1285876 -0.10085762 0.28065035
219.20734 70.017807 -9.9879999 -0.19807908 0.056182519 -0.021777391 0.20704119
228.97604 75.033226 -12.378 0.27330142 0.19771564 -0.16504374 0.37553239
229.32881 75.045357 -12.795 0.33184612 -0.087177925 -0.19187185 0.3931115
230.08704 74.019791 -12.997 0.3381705 -0.26067209 -0.3439759 0.54829615
229.47017 76.09478 -12.596 0.19389324 -0.22631656 -0.13257739 0.32617563
166.11974 29.117952 -14.471 -0.034803998 0.38243473 -0.15465817 0.41398886
230.07413 75.006371 -12.738 0.24696209 -0.09991812 -0.11207789 0.28902483
